# .PCD v0.7 - Point Cloud Data file format
VERSION 0.7
FIELDS x y z rgb
SIZE 4 4 4 4
TYPE F F F F
COUNT 1 1 1 1
WIDTH 962
HEIGHT 1
VIEWPOINT 0 0 0 1 0 0 0
POINTS 962
DATA ascii
1.4150282 -1.7746657 -3.3378601e-06 5.2551509e-39
1.4226907 -1.7744125 -4.6491623e-06 5.2551509e-39
1.4329697 -1.7740694 -3.9537749e-06 5.2551509e-39
1.4433283 -1.7737244 -3.8146973e-06 5.2551509e-39
1.4537656 -1.7751895 -3.0398369e-06 5.2551509e-39
1.4642851 -1.7748474 -3.7550926e-06 5.2551509e-39
1.4753319 -1.7754725 -0.00010319042 5.2551509e-39
1.4855684 -1.775988 -3.7550926e-06 5.2551509e-39
1.496334 -1.775643 -2.9802322e-06 5.2551509e-39
1.5071845 -1.7752961 -2.8212864e-06 5.2551509e-39
1.5149773 -1.7750673 -0.00093217089 5.2551509e-39
1.5236217 -1.7747712 -3.2186508e-06 5.2551509e-39
1.5346895 -1.7744194 -4.6491623e-06 5.2551509e-39
1.5458441 -1.7740636 -4.9471855e-06 5.2551509e-39
1.5565219 -1.7744747 -4.1007997e-06 5.2551509e-39
1.5655745 -1.7753191 -3.5762787e-06 5.2551509e-39
1.5741203 -1.775052 -3.695488e-06 5.2551509e-39
1.5855919 -1.7746941 -4.4703484e-06 5.2551509e-39
1.594251 -1.7744211 -2.8610229e-06 5.2551509e-39
1.602972 -1.7760626 -4.0729842e-06 5.2551509e-39
1.6146773 -1.7757047 -4.3114028e-06 5.2551509e-39
1.6264796 -1.7753452 -5.6624413e-06 5.2551509e-39
1.635389 -1.7750702 -4.1723251e-06 5.2551509e-39
1.6443609 -1.7747951 -3.8146973e-06 5.2551509e-39
1.6563008 -1.7743644 -0.00048646462 5.2551509e-39
1.6655053 -1.7741507 -6.1988831e-06 5.2551509e-39
1.6740519 -1.7746735 -5.6982039e-06 5.2551509e-39
1.6838703 -1.7755497 -2.1457672e-06 5.2551509e-39
1.6931465 -1.7752736 -3.516674e-06 5.2551509e-39
1.7056015 -1.7749029 -5.2750111e-06 5.2551509e-39
1.7150038 -1.7746181 -2.9802322e-06 5.2551509e-39
1.7244778 -1.7743372 -4.9471855e-06 5.2551509e-39
1.7340034 -1.7740526 -5.6028366e-06 5.2551509e-39
1.7441114 -1.7757586 -0.00071037456 5.2551509e-39
1.7564756 -1.7753925 -4.2915344e-06 5.2551509e-39
1.7662042 -1.7751064 -3.2186508e-06 5.2551509e-39
1.7760054 -1.7748207 -4.3511391e-06 5.2551509e-39
1.7858629 -1.7745334 -5.364418e-06 5.2551509e-39
1.795787 -1.7742395 -3.1193097e-06 5.2551509e-39
1.8057742 -1.7759976 -5.0067902e-06 5.2551509e-39
1.8158333 -1.7757115 -6.4373016e-06 5.2551509e-39
1.8259472 -1.7754202 -5.1259995e-06 5.2551509e-39
1.8361378 -1.7751292 -5.543232e-06 5.2551509e-39
1.8463861 -1.7748346 -4.6491623e-06 5.2551509e-39
1.8532606 -1.7746391 -5.6028366e-06 5.2551509e-39
1.8636289 -1.7743402 -3.8743019e-06 5.2551509e-39
1.8740611 -1.7740417 -4.1723251e-06 5.2551509e-39
1.8852752 -1.7749844 -5.6505205e-06 5.2551509e-39
1.8951448 -1.7755475 -5.6028366e-06 5.2551509e-39
1.9057935 -1.7752475 -3.7550926e-06 5.2551509e-39
1.9165105 -1.7749497 -5.2452087e-06 5.2551509e-39
1.9236962 -1.7747482 -4.7683716e-06 5.2551509e-39
1.9345406 -1.7744452 -4.8478446e-06 5.2551509e-39
1.9454497 -1.7762799 -4.0531158e-06 5.2551509e-39
1.9527701 -1.776083 -6.0796738e-06 5.2551509e-39
1.9638107 -1.775779 -4.2617321e-06 5.2551509e-39
1.9749229 -1.7754773 -5.4836273e-06 5.2551509e-39
1.9861192 -1.7751722 -5.7220459e-06 5.2551509e-39
1.9973842 -1.7748652 -6.0796738e-06 5.2551509e-39
2.0049396 -1.7746582 -5.6028366e-06 5.2551509e-39
2.0125306 -1.774451 -5.4836273e-06 5.2551509e-39
2.0239868 -1.7741375 -4.7683716e-06 5.2551509e-39
2.0355148 -1.7738223 -4.4107437e-06 5.2551509e-39
2.0432487 -1.7736113 -4.529953e-06 5.2551509e-39
2.0557032 -1.7746019 -5.0544741e-06 5.2551509e-39
2.0666718 -1.775197 -7.0333481e-06 5.2551509e-39
2.0745511 -1.7749863 -6.3180923e-06 5.2551509e-39
2.0824676 -1.7747746 -5.7220459e-06 5.2551509e-39
2.0936191 -1.7753741 -5.2690507e-06 5.2551509e-39
2.1064465 -1.7763839 -5.6028366e-06 5.2551509e-39
2.1145167 -1.776175 -5.9604645e-06 5.2551509e-39
2.1226234 -1.7759634 -5.2452087e-06 5.2551509e-39
2.1348634 -1.7756456 -5.1259995e-06 5.2551509e-39
2.1471832 -1.7753265 -5.6028366e-06 5.2551509e-39
2.1554499 -1.7751129 -6.3180923e-06 5.2551509e-39
2.1637537 -1.7748959 -5.364418e-06 5.2551509e-39
2.1720989 -1.7769701 -4.7683716e-06 5.2551509e-39
2.1847 -1.7743521 -5.364418e-06 5.2551509e-39
2.1973846 -1.7740242 -6.4373016e-06 5.2551509e-39
2.2230396 -1.771031 -5.2452087e-06 5.2551509e-39
2.2447176 -1.7704537 -5.1856041e-06 5.2551509e-39
2.3853271 -1.7740121 -6.3180923e-06 5.2551509e-39
2.3947883 -1.7737808 -7.5101852e-06 5.2551509e-39
1.353672 -1.7638971 -2.5828679e-06 5.2551509e-39
1.3650699 -1.7658029 -4.198816e-06 5.2551509e-39
1.3773824 -1.7653441 -4.2915344e-06 5.2551509e-39
1.3873171 -1.7649716 -2.7418137e-06 5.2551509e-39
1.3973287 -1.7645992 -3.2782555e-06 5.2551509e-39
1.4074159 -1.7642237 -3.7550926e-06 5.2551509e-39
1.415131 -1.7637044 -0.00091649994 5.2551509e-39
1.422178 -1.7643915 -3.9577485e-06 5.2551509e-39
1.4329699 -1.7650714 -4.2319298e-06 5.2551509e-39
1.4433281 -1.7646916 -3.8146973e-06 5.2551509e-39
1.4537655 -1.7661219 -3.0398369e-06 5.2551509e-39
1.4642853 -1.7657448 -3.7550926e-06 5.2551509e-39
1.4748865 -1.765365 -4.7683716e-06 5.2551509e-39
1.4855684 -1.7649798 -3.7550926e-06 5.2551509e-39
1.4963344 -1.7645923 -3.4570694e-06 5.2551509e-39
1.5071846 -1.764202 -3.0994415e-06 5.2551509e-39
1.515376 -1.7639073 -2.9802322e-06 5.2551509e-39
1.5236218 -1.7654715 -3.4570694e-06 5.2551509e-39
1.5346894 -1.7650826 -4.6491623e-06 5.2551509e-39
1.5458441 -1.7646896 -4.9471855e-06 5.2551509e-39
1.5576508 -1.7654022 -4.1246412e-06 5.2551509e-39
1.5655745 -1.7658795 -3.5762787e-06 5.2551509e-39
1.5741202 -1.7655839 -3.695488e-06 5.2551509e-39
1.5855907 -1.7651867 -3.5564105e-06 5.2551509e-39
1.5942521 -1.7648872 -3.8146973e-06 5.2551509e-39
1.6029726 -1.7645864 -4.5895576e-06 5.2551509e-39
1.6146775 -1.7641811 -4.5895576e-06 5.2551509e-39
1.6258872 -1.7645668 -5.6505205e-06 5.2551509e-39
1.635389 -1.7653981 -4.1723251e-06 5.2551509e-39
1.6443603 -1.7650925 -3.3378601e-06 5.2551509e-39
1.6564068 -1.7646849 -4.3511391e-06 5.2551509e-39
1.6655053 -1.7643785 -6.1988831e-06 5.2551509e-39
1.6752764 -1.7652235 -5.5074693e-06 5.2551509e-39
1.6838703 -1.7657162 -2.1457672e-06 5.2551509e-39
1.6931477 -1.7654104 -4.3908753e-06 5.2551509e-39
1.7056018 -1.7649976 -5.6028366e-06 5.2551509e-39
1.7150038 -1.7646812 -2.9802322e-06 5.2551509e-39
1.7244768 -1.7643676 -4.2915344e-06 5.2551509e-39
1.7340034 -1.7640524 -5.6028366e-06 5.2551509e-39
1.7435949 -1.7657382 -4.6491623e-06 5.2551509e-39
1.7564757 -1.7653176 -4.2915344e-06 5.2551509e-39
1.7662042 -1.7649989 -3.2186508e-06 5.2551509e-39
1.7760053 -1.7646805 -4.3511391e-06 5.2551509e-39
1.7858629 -1.7643607 -5.364418e-06 5.2551509e-39
1.7957865 -1.7640332 -2.682209e-06 5.2551509e-39
1.8057742 -1.7657584 -5.0067902e-06 5.2551509e-39
1.8158337 -1.7654394 -6.7353249e-06 5.2551509e-39
1.8259472 -1.7651139 -5.1259995e-06 5.2551509e-39
1.8361377 -1.764789 -5.543232e-06 5.2551509e-39
1.8463861 -1.7644604 -4.6491623e-06 5.2551509e-39
1.8532606 -1.7642418 -5.6028366e-06 5.2551509e-39
1.8636289 -1.7659947 -3.8743019e-06 5.2551509e-39
1.8740611 -1.7656686 -4.1723251e-06 5.2551509e-39
1.8845706 -1.7653399 -4.2319298e-06 5.2551509e-39
1.8951447 -1.7650108 -5.6028366e-06 5.2551509e-39
1.9057933 -1.7646754 -3.7550926e-06 5.2551509e-39
1.9165105 -1.7643421 -5.2452087e-06 5.2551509e-39
1.9236978 -1.7641183 -6.0796738e-06 5.2551509e-39
1.934541 -1.7637776 -5.0663948e-06 5.2551509e-39
1.9446628 -1.7658832 -0.0010529569 5.2551509e-39
1.9527701 -1.7653545 -6.0796738e-06 5.2551509e-39
1.9638096 -1.7650131 -3.6358833e-06 5.2551509e-39
1.9749222 -1.7646745 -5.0465264e-06 5.2551509e-39
1.9853709 -1.7652241 -5.9843064e-06 5.2551509e-39
1.9973842 -1.7661636 -6.0796738e-06 5.2551509e-39
2.0049398 -1.7659369 -5.6028366e-06 5.2551509e-39
2.0125306 -1.7657092 -5.4836273e-06 5.2551509e-39
2.0239868 -1.7653651 -4.7683716e-06 5.2551509e-39
2.0355148 -1.7650194 -4.4703484e-06 5.2551509e-39
2.0432487 -1.7647877 -4.529953e-06 5.2551509e-39
2.0549231 -1.7644391 -5.3048134e-06 5.2551509e-39
2.0666714 -1.7640889 -6.6161156e-06 5.2551509e-39
2.0745511 -1.7638526 -6.3180923e-06 5.2551509e-39
2.0824676 -1.7636144 -5.7220459e-06 5.2551509e-39
2.0952179 -1.7645775 -5.2213668e-06 5.2551509e-39
2.1064465 -1.765144 -5.6028366e-06 5.2551509e-39
2.1145167 -1.7649082 -5.9604645e-06 5.2551509e-39
2.1226234 -1.7646698 -5.2452087e-06 5.2551509e-39
2.1348634 -1.7665781 -5.1259995e-06 5.2551509e-39
2.1471832 -1.7662261 -5.6028366e-06 5.2551509e-39
2.1554458 -1.7659872 -3.9339066e-06 5.2551509e-39
2.1637537 -1.7657514 -5.364418e-06 5.2551509e-39
2.184701 -1.7651525 -5.9008598e-06 5.2551509e-39
2.1973846 -1.7647903 -6.4373016e-06 5.2551509e-39
2.2058957 -1.7645471 -6.7949295e-06 5.2551509e-39
2.2144446 -1.7642999 -4.8875809e-06 5.2551509e-39
2.2230396 -1.7640543 -5.2452087e-06 5.2551509e-39
2.2449765 -1.7635807 -0.00036970849 5.2551509e-39
2.3853271 -1.7667112 -6.3180923e-06 5.2551509e-39
2.3947883 -1.7664609 -7.5101852e-06 5.2551509e-39
1.335966 -1.7530054 -2.9802322e-06 5.2551509e-39
1.3436649 -1.7554634 -3.7193299e-06 5.2551509e-39
1.3528627 -1.755778 -2.8808911e-06 5.2551509e-39
1.3650688 -1.7552747 -3.139178e-06 5.2551509e-39
1.3773824 -1.754768 -4.2915344e-06 5.2551509e-39
1.3873173 -1.7543563 -3.0199687e-06 5.2551509e-39
1.3973294 -1.7539445 -4.1127205e-06 5.2551509e-39
1.4069099 -1.7542629 -4.1007997e-06 5.2551509e-39
1.4150282 -1.7550008 -3.3378601e-06 5.2551509e-39
1.4232019 -1.7557462 -3.9100646e-06 5.2551509e-39
1.4329695 -1.7560724 -3.7153561e-06 5.2551509e-39
1.4433283 -1.7556587 -3.8146973e-06 5.2551509e-39
1.4537655 -1.7552409 -3.0398369e-06 5.2551509e-39
1.4642853 -1.7548218 -3.7550926e-06 5.2551509e-39
1.4748868 -1.7543999 -5.0067902e-06 5.2551509e-39
1.4855691 -1.7539726 -4.529953e-06 5.2551509e-39
1.4963347 -1.7553834 -3.695488e-06 5.2551509e-39
1.5071847 -1.7549565 -3.0994415e-06 5.2551509e-39
1.515376 -1.7546346 -2.9802322e-06 5.2551509e-39
1.5236219 -1.7561716 -3.4570694e-06 5.2551509e-39
1.5346895 -1.7557459 -4.6491623e-06 5.2551509e-39
1.5458441 -1.7553157 -4.9471855e-06 5.2551509e-39
1.5570863 -1.7548803 -4.1127205e-06 5.2551509e-39
1.5655745 -1.7545519 -3.5762787e-06 5.2551509e-39
1.5741205 -1.7542224 -3.9140382e-06 5.2551509e-39
1.5850151 -1.7545627 -3.695488e-06 5.2551509e-39
1.5942526 -1.7553526 -4.2915344e-06 5.2551509e-39
1.6029726 -1.7550222 -4.5895576e-06 5.2551509e-39
1.6146775 -1.7545781 -4.5895576e-06 5.2551509e-39
1.6270721 -1.7552675 -5.674362e-06 5.2551509e-39
1.635389 -1.7557262 -4.1723251e-06 5.2551509e-39
1.6443602 -1.7553905 -3.3378601e-06 5.2551509e-39
1.6564056 -1.7549416 -3.3577282e-06 5.2551509e-39
1.6655053 -1.7546062 -6.1988831e-06 5.2551509e-39
1.6746645 -1.7542642 -5.8412552e-06 5.2551509e-39
1.683872 -1.7558846 -3.4570694e-06 5.2551509e-39
1.6931481 -1.7555468 -4.8279762e-06 5.2551509e-39
1.7056019 -1.7550919 -5.6028366e-06 5.2551509e-39
1.7150038 -1.7547441 -2.9802322e-06 5.2551509e-39
1.7244768 -1.7543991 -4.2915344e-06 5.2551509e-39
1.7340018 -1.7540503 -4.2915344e-06 5.2551509e-39
1.7435948 -1.755706 -4.6491623e-06 5.2551509e-39
1.7564758 -1.7552425 -4.2915344e-06 5.2551509e-39
1.7662042 -1.7548914 -3.2186508e-06 5.2551509e-39
1.7760056 -1.7545406 -4.5696893e-06 5.2551509e-39
1.7858629 -1.7541877 -5.364418e-06 5.2551509e-39
1.7957884 -1.7558703 -4.0531158e-06 5.2551509e-39
1.8057724 -1.7555175 -3.695488e-06 5.2551509e-39
1.8158329 -1.7551658 -6.1094761e-06 5.2551509e-39
1.8259472 -1.7548076 -5.1259995e-06 5.2551509e-39
1.8361378 -1.7544488 -5.543232e-06 5.2551509e-39
1.8463861 -1.754086 -4.6491623e-06 5.2551509e-39
1.8532606 -1.7538447 -5.6028366e-06 5.2551509e-39
1.8636287 -1.7555629 -3.8743019e-06 5.2551509e-39
1.8740611 -1.7552022 -4.1723251e-06 5.2551509e-39
1.8845698 -1.7548376 -3.5762787e-06 5.2551509e-39
1.8951429 -1.7544726 -4.2517981e-06 5.2551509e-39
1.905082 -1.7549756 -4.4345857e-06 5.2551509e-39
1.9165105 -1.7558558 -5.2452087e-06 5.2551509e-39
1.9236978 -1.755613 -6.0796738e-06 5.2551509e-39
1.9352319 -1.7548764 -0.00084122765 5.2551509e-39
1.9454497 -1.7548718 -4.0531158e-06 5.2551509e-39
1.9527701 -1.754626 -6.0796738e-06 5.2551509e-39
1.9638097 -1.754248 -3.6358833e-06 5.2551509e-39
1.9749211 -1.7538714 -4.1723251e-06 5.2551509e-39
1.9868667 -1.7547691 -4.9591063e-06 5.2551509e-39
1.9973842 -1.7552867 -6.0796738e-06 5.2551509e-39
2.0049398 -1.7550346 -5.6028366e-06 5.2551509e-39
2.0125306 -1.7547818 -5.4836273e-06 5.2551509e-39
2.0232213 -1.755304 -5.1975248e-06 5.2551509e-39
2.0355167 -1.756218 -5.8412552e-06 5.2551509e-39
2.0432487 -1.755964 -4.529953e-06 5.2551509e-39
2.0549231 -1.7555842 -5.3048134e-06 5.2551509e-39
2.0666695 -1.7552013 -5.364418e-06 5.2551509e-39
2.0745511 -1.7549455 -6.3180923e-06 5.2551509e-39
2.0824676 -1.7546864 -5.7220459e-06 5.2551509e-39
2.0944185 -1.7542961 -5.2452087e-06 5.2551509e-39
2.1064465 -1.7539041 -5.6028366e-06 5.2551509e-39
2.1145167 -1.7536414 -5.9604645e-06 5.2551509e-39
2.1226234 -1.753376 -5.2452087e-06 5.2551509e-39
2.1348636 -1.7552434 -5.1259995e-06 5.2551509e-39
2.1471832 -1.7548505 -5.6028366e-06 5.2551509e-39
2.1554487 -1.7545863 -5.5233636e-06 5.2551509e-39
2.1637518 -1.7566053 -4.0531158e-06 5.2551509e-39
2.1721025 -1.7540563 -7.0333481e-06 5.2551509e-39
2.188915 -1.7581234 -5.9604645e-06 5.2551509e-39
2.1973846 -1.7555561 -6.4373016e-06 5.2551509e-39
2.2063224 -1.7545313 -0.00037716003 5.2551509e-39
2.2144446 -1.7550204 -4.8875809e-06 5.2551509e-39
2.2230396 -1.7570775 -5.2452087e-06 5.2551509e-39
2.2316763 -1.7521501 -5.1259995e-06 5.2551509e-39
2.2447176 -1.7540736 -5.1856041e-06 5.2551509e-39
2.2578437 -1.7513126 -4.0531158e-06 5.2551509e-39
2.2666554 -1.7510324 -5.0067902e-06 5.2551509e-39
1.3169239 -1.7400391 -4.4107437e-06 5.2551509e-39
1.3248261 -1.7442675 -3.8146973e-06 5.2551509e-39
1.3335733 -1.7461747 -3.9935112e-06 5.2551509e-39
1.343183 -1.7457399 -4.0531158e-06 5.2551509e-39
1.3528627 -1.7452999 -2.9206276e-06 5.2551509e-39
1.3650688 -1.7447476 -3.139178e-06 5.2551509e-39
1.3773814 -1.7441907 -3.2981236e-06 5.2551509e-39
1.3873192 -1.7437433 -5.1259995e-06 5.2551509e-39
1.3973294 -1.7450647 -4.1127205e-06 5.2551509e-39
1.4079221 -1.7456627 -3.8862227e-06 5.2551509e-39
1.4150282 -1.7460622 -3.3378601e-06 5.2551509e-39
1.4226899 -1.7457262 -3.9339066e-06 5.2551509e-39
1.4329683 -1.745273 -2.682209e-06 5.2551509e-39
1.4433283 -1.7448195 -3.8146973e-06 5.2551509e-39
1.4537659 -1.7443601 -3.317992e-06 5.2551509e-39
1.4642857 -1.7438993 -4.3114028e-06 5.2551509e-39
1.4748874 -1.7452626 -5.4836273e-06 5.2551509e-39
1.4855692 -1.7447993 -4.529953e-06 5.2551509e-39
1.4963347 -1.7461742 -3.695488e-06 5.2551509e-39
1.5071849 -1.7457112 -3.0994415e-06 5.2551509e-39
1.515376 -1.7453619 -2.9802322e-06 5.2551509e-39
1.5236219 -1.7450113 -3.4570694e-06 5.2551509e-39
1.5346888 -1.7445407 -4.1524568e-06 5.2551509e-39
1.5458444 -1.7440668 -5.2054725e-06 5.2551509e-39
1.5570868 -1.7454693 -4.4703484e-06 5.2551509e-39
1.5655745 -1.7451122 -3.5762787e-06 5.2551509e-39
1.574121 -1.7447548 -4.3511391e-06 5.2551509e-39
1.5861671 -1.7453909 -3.9339066e-06 5.2551509e-39
1.5942526 -1.7458175 -4.2915344e-06 5.2551509e-39
1.6029726 -1.745458 -4.5895576e-06 5.2551509e-39
1.6146774 -1.744975 -4.5895576e-06 5.2551509e-39
1.6264796 -1.7444893 -5.6624413e-06 5.2551509e-39
1.635389 -1.7441195 -4.1723251e-06 5.2551509e-39
1.6443602 -1.7456887 -3.3378601e-06 5.2551509e-39
1.6564056 -1.7451996 -3.2782555e-06 5.2551509e-39
1.6655018 -1.7448301 -3.3378601e-06 5.2551509e-39
1.674665 -1.7444621 -6.3180923e-06 5.2551509e-39
1.6838719 -1.7460512 -3.4570694e-06 5.2551509e-39
1.6931481 -1.7456824 -4.8279762e-06 5.2551509e-39
1.7056018 -1.7451862 -5.6028366e-06 5.2551509e-39
1.7150038 -1.7448071 -2.9802322e-06 5.2551509e-39
1.7244768 -1.7444305 -4.2915344e-06 5.2551509e-39
1.7340018 -1.74405 -4.2915344e-06 5.2551509e-39
1.7435949 -1.7456738 -4.6491623e-06 5.2551509e-39
1.7564757 -1.7451674 -4.2915344e-06 5.2551509e-39
1.7662059 -1.7447855 -4.529953e-06 5.2551509e-39
1.7760062 -1.7444012 -5.0067902e-06 5.2551509e-39
1.7858629 -1.7440147 -5.364418e-06 5.2551509e-39
1.7957884 -1.7456642 -4.0531158e-06 5.2551509e-39
1.8057724 -1.7452784 -3.695488e-06 5.2551509e-39
1.8158307 -1.7448913 -4.6491623e-06 5.2551509e-39
1.8259472 -1.7445012 -5.1259995e-06 5.2551509e-39
1.8354566 -1.7449633 -5.6982039e-06 5.2551509e-39
1.8463861 -1.7457865 -4.6491623e-06 5.2551509e-39
1.8530303 -1.7448854 -0.0017794328 5.2551509e-39
1.8636289 -1.7451313 -3.8743019e-06 5.2551509e-39
1.8740611 -1.7447357 -4.1723251e-06 5.2551509e-39
1.8845707 -1.7443371 -4.2319298e-06 5.2551509e-39
1.8951429 -1.7439361 -4.1723251e-06 5.2551509e-39
1.9065063 -1.7447752 -4.5061111e-06 5.2551509e-39
1.9165105 -1.7452482 -5.2452087e-06 5.2551509e-39
1.9234639 -1.7441056 -0.00023907065 5.2551509e-39
1.9345411 -1.7445759 -5.0663948e-06 5.2551509e-39
1.9454497 -1.7463086 -4.0531158e-06 5.2551509e-39
1.9527701 -1.7460433 -6.0796738e-06 5.2551509e-39
1.9638097 -1.7456357 -3.6358833e-06 5.2551509e-39
1.9749211 -1.7452297 -4.1723251e-06 5.2551509e-39
1.9861174 -1.7448202 -4.4703484e-06 5.2551509e-39
1.9973842 -1.7444098 -6.0796738e-06 5.2551509e-39
2.0045233 -1.7435244 -1.2330514e-05 5.2551509e-39
2.0125306 -1.7438545 -5.4836273e-06 5.2551509e-39
2.024754 -1.7447245 -5.4836273e-06 5.2551509e-39
2.0355167 -1.7452141 -5.8412552e-06 5.2551509e-39
2.0432487 -1.7449346 -4.529953e-06 5.2551509e-39
2.0541427 -1.7454309 -5.6028366e-06 5.2551509e-39
2.0666695 -1.7463152 -5.364418e-06 5.2551509e-39
2.0745492 -1.746037 -5.1259995e-06 5.2551509e-39
2.0824676 -1.7457583 -5.7220459e-06 5.2551509e-39
2.0944185 -1.7453362 -5.2452087e-06 5.2551509e-39
2.1064465 -1.7449121 -5.6028366e-06 5.2551509e-39
2.1145167 -1.744628 -5.9604645e-06 5.2551509e-39
2.1226234 -1.7443409 -5.2452087e-06 5.2551509e-39
2.1348653 -1.7439106 -6.2584877e-06 5.2551509e-39
2.1471832 -1.7434751 -5.6028366e-06 5.2551509e-39
2.1554499 -1.7431844 -6.3180923e-06 5.2551509e-39
2.1637518 -1.7451745 -4.0531158e-06 5.2551509e-39
2.1720989 -1.7448865 -4.7683716e-06 5.2551509e-39
2.1973846 -1.7463222 -6.4373016e-06 5.2551509e-39
2.2058957 -1.7460337 -6.7949295e-06 5.2551509e-39
2.2144446 -1.7457409 -4.8875809e-06 5.2551509e-39
2.2316763 -1.745156 -5.1259995e-06 5.2551509e-39
2.2439086 -1.745396 -0.00070906442 5.2551509e-39
2.2578437 -1.7442664 -4.0531158e-06 5.2551509e-39
2.2649961 -1.7443961 -0.00037889215 5.2551509e-39
2.3023443 -1.7451386 -7.5101852e-06 5.2551509e-39
1.3059454 -1.7314191 -4.6888986e-06 5.2551509e-39
1.3145643 -1.7349886 -3.516674e-06 5.2551509e-39
1.3240337 -1.7362428 -3.4372013e-06 5.2551509e-39
1.3335735 -1.7357737 -3.9935112e-06 5.2551509e-39
1.343183 -1.7353004 -4.0531158e-06 5.2551509e-39
1.3528627 -1.7348218 -2.9206276e-06 5.2551509e-39
1.3650699 -1.7342223 -4.1723251e-06 5.2551509e-39
1.3768857 -1.7343438 -2.4557114e-06 5.2551509e-39
1.3873193 -1.7348969 -5.1259995e-06 5.2551509e-39
1.3973294 -1.7361851 -4.1127205e-06 5.2551509e-39
1.4074162 -1.7357016 -3.9935112e-06 5.2551509e-39
1.4150282 -1.7353357 -3.3378601e-06 5.2551509e-39
1.4226899 -1.7349695 -3.9339066e-06 5.2551509e-39
1.4329683 -1.734475 -2.682209e-06 5.2551509e-39
1.4433275 -1.7339793 -3.2981236e-06 5.2551509e-39
1.4537665 -1.7352933 -3.8743019e-06 5.2551509e-39
1.4642861 -1.7347971 -4.5895576e-06 5.2551509e-39
1.4748868 -1.736124 -4.9471855e-06 5.2551509e-39
1.4855691 -1.7356259 -4.529953e-06 5.2551509e-39
1.4963347 -1.7351232 -3.695488e-06 5.2551509e-39
1.5071849 -1.7346168 -3.0994415e-06 5.2551509e-39
1.515376 -1.7342349 -2.9802322e-06 5.2551509e-39
1.5230709 -1.734622 -3.6478043e-06 5.2551509e-39
1.5346882 -1.7352031 -3.516674e-06 5.2551509e-39
1.5458449 -1.7346935 -5.7220459e-06 5.2551509e-39
1.5570873 -1.7360582 -4.8279762e-06 5.2551509e-39
1.5655745 -1.7356725 -3.5762787e-06 5.2551509e-39
1.574121 -1.7352867 -4.3511391e-06 5.2551509e-39
1.585591 -1.7347666 -3.8146973e-06 5.2551509e-39
1.5942526 -1.7343754 -4.2915344e-06 5.2551509e-39
1.602971 -1.7339793 -3.1590462e-06 5.2551509e-39
1.6146775 -1.7353718 -4.5895576e-06 5.2551509e-39
1.6264796 -1.7348468 -5.6624413e-06 5.2551509e-39
1.6353898 -1.7344484 -4.8279762e-06 5.2551509e-39
1.6443609 -1.7359877 -4.0531158e-06 5.2551509e-39
1.6564059 -1.735458 -3.695488e-06 5.2551509e-39
1.665502 -1.7350578 -3.3378601e-06 5.2551509e-39
1.6746634 -1.7346576 -4.9471855e-06 5.2551509e-39
1.6838719 -1.734251 -3.4570694e-06 5.2551509e-39
1.6925278 -1.7346623 -4.6253203e-06 5.2551509e-39
1.7056019 -1.7352803 -5.6028366e-06 5.2551509e-39
1.7150038 -1.73487 -2.9802322e-06 5.2551509e-39
1.7244768 -1.7344619 -4.2915344e-06 5.2551509e-39
1.7340018 -1.7340497 -4.2915344e-06 5.2551509e-39
1.7435938 -1.7356406 -3.9537749e-06 5.2551509e-39
1.7564765 -1.7350931 -4.9471855e-06 5.2551509e-39
1.7662059 -1.7346783 -4.529953e-06 5.2551509e-39
1.7760062 -1.7342612 -5.0067902e-06 5.2551509e-39
1.7858629 -1.7358766 -5.364418e-06 5.2551509e-39
1.7957884 -1.7354585 -4.0531158e-06 5.2551509e-39
1.8057724 -1.7350392 -3.695488e-06 5.2551509e-39
1.8158302 -1.7346181 -4.2319298e-06 5.2551509e-39
1.82596 -1.7338462 -0.0011345125 5.2551509e-39
1.8368187 -1.7349818 -5.38826e-06 5.2551509e-39
1.8463861 -1.7354122 -4.6491623e-06 5.2551509e-39
1.8532611 -1.7351303 -6.0399375e-06 5.2551509e-39
1.8636307 -1.7347012 -5.1856041e-06 5.2551509e-39
1.8740611 -1.7342691 -4.1723251e-06 5.2551509e-39
1.8845707 -1.7359359 -4.2319298e-06 5.2551509e-39
1.8951429 -1.7355068 -4.1723251e-06 5.2551509e-39
1.9057943 -1.7350744 -4.4703484e-06 5.2551509e-39
1.9165105 -1.7346404 -5.2452087e-06 5.2551509e-39
1.9236978 -1.7343496 -6.0796738e-06 5.2551509e-39
1.934541 -1.7339082 -5.0663948e-06 5.2551509e-39
1.9454497 -1.7356046 -4.0531158e-06 5.2551509e-39
1.9527701 -1.735315 -6.0796738e-06 5.2551509e-39
1.9638098 -1.7348706 -3.6358833e-06 5.2551509e-39
1.9749217 -1.734428 -4.609426e-06 5.2551509e-39
1.9861183 -1.7361495 -5.1259995e-06 5.2551509e-39
1.9973842 -1.7357082 -6.0796738e-06 5.2551509e-39
2.0049415 -1.7354126 -6.7949295e-06 5.2551509e-39
2.0125306 -1.7351127 -5.4836273e-06 5.2551509e-39
2.023988 -1.7346628 -5.4836273e-06 5.2551509e-39
2.0355167 -1.7342103 -5.8412552e-06 5.2551509e-39
2.0432487 -1.7339051 -4.529953e-06 5.2551509e-39
2.0557032 -1.7347462 -5.0067902e-06 5.2551509e-39
2.0666695 -1.7352079 -5.364418e-06 5.2551509e-39
2.0745492 -1.7349032 -5.1259995e-06 5.2551509e-39
2.0824656 -1.7345964 -4.2915344e-06 5.2551509e-39
2.0944185 -1.7363763 -5.2452087e-06 5.2551509e-39
2.1064465 -1.7359202 -5.6028366e-06 5.2551509e-39
2.1145167 -1.7356145 -5.9604645e-06 5.2551509e-39
2.1226251 -1.7353075 -6.3180923e-06 5.2551509e-39
2.1342371 -1.7351134 -0.00024659006 5.2551509e-39
2.1471832 -1.7343748 -5.6028366e-06 5.2551509e-39
2.1538508 -1.7355245 -0.00087161682 5.2551509e-39
2.1637518 -1.733744 -4.0531158e-06 5.2551509e-39
2.2316763 -1.738162 -5.1259995e-06 5.2551509e-39
2.2403572 -1.7378509 -5.7220459e-06 5.2551509e-39
1.2888744 -1.7209378 -3.9339066e-06 5.2551509e-39
1.2962968 -1.7232578 -4.2676925e-06 5.2551509e-39
1.3046967 -1.7241695 -4.9114228e-06 5.2551509e-39
1.3145643 -1.7263843 -3.516674e-06 5.2551509e-39
1.3240333 -1.7258793 -2.9206276e-06 5.2551509e-39
1.3335729 -1.725372 -3.4570694e-06 5.2551509e-39
1.3431841 -1.7248622 -5.1259995e-06 5.2551509e-39
1.3528627 -1.7243438 -2.9206276e-06 5.2551509e-39
1.3644565 -1.7241677 -4.2468309e-06 5.2551509e-39
1.3778763 -1.7258337 -3.1471252e-06 5.2551509e-39
1.3873187 -1.7260498 -4.609426e-06 5.2551509e-39
1.3973294 -1.7255293 -4.1127205e-06 5.2551509e-39
1.407416 -1.7250056 -3.9935112e-06 5.2551509e-39
1.4150282 -1.7246094 -3.3378601e-06 5.2551509e-39
1.4226903 -1.7242126 -4.1921935e-06 5.2551509e-39
1.4324532 -1.7244251 -3.3378601e-06 5.2551509e-39
1.4433272 -1.7249463 -3.0398369e-06 5.2551509e-39
1.4537663 -1.7262259 -3.8743019e-06 5.2551509e-39
1.464286 -1.7256945 -4.5895576e-06 5.2551509e-39
1.4748856 -1.7251574 -3.8743019e-06 5.2551509e-39
1.4855691 -1.7246178 -4.529953e-06 5.2551509e-39
1.4963347 -1.724072 -3.695488e-06 5.2551509e-39
1.5071847 -1.7253714 -3.0994415e-06 5.2551509e-39
1.515376 -1.7249622 -2.9802322e-06 5.2551509e-39
1.5241741 -1.7256422 -4.5061111e-06 5.2551509e-39
1.5346886 -1.7258667 -3.8743019e-06 5.2551509e-39
1.5458444 -1.7253189 -5.2253404e-06 5.2551509e-39
1.5570873 -1.7247647 -4.8279762e-06 5.2551509e-39
1.5655745 -1.7243448 -3.5762787e-06 5.2551509e-39
1.5735495 -1.7247111 -4.1723251e-06 5.2551509e-39
1.5855911 -1.7252604 -3.8146973e-06 5.2551509e-39
1.5942526 -1.7248402 -4.2915344e-06 5.2551509e-39
1.602971 -1.7244151 -3.1590462e-06 5.2551509e-39
1.614677 -1.725768 -4.0928521e-06 5.2551509e-39
1.6264802 -1.7252051 -6.1392784e-06 5.2551509e-39
1.6353906 -1.7247772 -5.4836273e-06 5.2551509e-39
1.6443609 -1.7243453 -4.0531158e-06 5.2551509e-39
1.6558014 -1.724577 -3.8385392e-06 5.2551509e-39
1.6655018 -1.7252855 -3.3378601e-06 5.2551509e-39
1.6746616 -1.724853 -3.6358833e-06 5.2551509e-39
1.683872 -1.7244177 -3.4570694e-06 5.2551509e-39
1.6937685 -1.725137 -5.0306321e-06 5.2551509e-39
1.7056018 -1.7253746 -5.6028366e-06 5.2551509e-39
1.7150038 -1.724933 -2.9802322e-06 5.2551509e-39
1.7244774 -1.7244939 -4.7683716e-06 5.2551509e-39
1.7340018 -1.7240494 -4.2915344e-06 5.2551509e-39
1.7435941 -1.7256083 -3.9339066e-06 5.2551509e-39
1.7564749 -1.7250162 -3.6358833e-06 5.2551509e-39
1.7662059 -1.7245708 -4.529953e-06 5.2551509e-39
1.7760062 -1.7241211 -5.0067902e-06 5.2551509e-39
1.7858629 -1.7257036 -5.364418e-06 5.2551509e-39
1.7957884 -1.7252525 -4.0531158e-06 5.2551509e-39
1.8057724 -1.7248001 -3.695488e-06 5.2551509e-39
1.8158302 -1.7243453 -4.2319298e-06 5.2551509e-39
1.8259438 -1.7259467 -2.3841858e-06 5.2551509e-39
1.8361373 -1.7254957 -5.2750111e-06 5.2551509e-39
1.8463861 -1.7250378 -4.6491623e-06 5.2551509e-39
1.8532623 -1.7247342 -6.9141388e-06 5.2551509e-39
1.8636305 -1.7242694 -5.1856041e-06 5.2551509e-39
1.8740611 -1.7238028 -4.1723251e-06 5.2551509e-39
1.8845707 -1.7254344 -4.2319298e-06 5.2551509e-39
1.8951429 -1.7249702 -4.1723251e-06 5.2551509e-39
1.9057941 -1.7245024 -4.4703484e-06 5.2551509e-39
1.9165105 -1.7261542 -5.2452087e-06 5.2551509e-39
1.9236978 -1.7258443 -6.0796738e-06 5.2551509e-39
1.934541 -1.7253737 -5.0663948e-06 5.2551509e-39
1.9454497 -1.7249005 -4.0531158e-06 5.2551509e-39
1.9527701 -1.7245865 -6.0796738e-06 5.2551509e-39
1.9638101 -1.7241058 -3.9637089e-06 5.2551509e-39
1.9749229 -1.723627 -5.4836273e-06 5.2551509e-39
1.9861183 -1.72531 -5.1259995e-06 5.2551509e-39
1.9973806 -1.7248282 -3.5762787e-06 5.2551509e-39
2.0049403 -1.7245094 -5.9207282e-06 5.2551509e-39
2.0125306 -1.7263708 -5.4836273e-06 5.2551509e-39
2.023988 -1.7258903 -5.4836273e-06 5.2551509e-39
2.0355167 -1.7254071 -5.8412552e-06 5.2551509e-39
2.0432487 -1.7250814 -4.529953e-06 5.2551509e-39
2.0549231 -1.7245927 -5.3048134e-06 5.2551509e-39
2.0666695 -1.7241004 -5.364418e-06 5.2551509e-39
2.0745492 -1.7237695 -5.1259995e-06 5.2551509e-39
2.0824656 -1.7234364 -4.2915344e-06 5.2551509e-39
2.0944173 -1.7251753 -4.3312707e-06 5.2551509e-39
2.1064503 -1.7246834 -8.1062317e-06 5.2551509e-39
2.1145167 -1.7266011 -5.9604645e-06 5.2551509e-39
2.1226251 -1.7262725 -6.3180923e-06 5.2551509e-39
2.1348653 -1.7257755 -6.2584877e-06 5.2551509e-39
2.1471832 -1.7252743 -5.6028366e-06 5.2551509e-39
2.1554499 -1.7249396 -6.3180923e-06 5.2551509e-39
2.1637518 -1.7245996 -4.0531158e-06 5.2551509e-39
1.2781297 -1.7124878 -1.748403e-06 5.2551509e-39
1.2865671 -1.7142588 -4.6491623e-06 5.2551509e-39
1.2958317 -1.7137154 -4.1127205e-06 5.2551509e-39
1.3056332 -1.7158868 -4.7445296e-06 5.2551509e-39
1.3145643 -1.7160591 -3.516674e-06 5.2551509e-39
1.3240337 -1.7155169 -3.4372013e-06 5.2551509e-39
1.3335718 -1.7149696 -2.3841858e-06 5.2551509e-39
1.3431846 -1.7144233 -5.6624413e-06 5.2551509e-39
1.3528627 -1.7138658 -2.9206276e-06 5.2551509e-39
1.3657706 -1.7156366 -4.0871755e-06 5.2551509e-39
1.377381 -1.7159873 -2.8014183e-06 5.2551509e-39
1.3873187 -1.7154337 -4.3511391e-06 5.2551509e-39
1.3973289 -1.714873 -3.5961468e-06 5.2551509e-39
1.4074163 -1.7143101 -4.2517981e-06 5.2551509e-39
1.4150294 -1.7138844 -4.3710074e-06 5.2551509e-39
1.4222689 -1.7141594 -0.0012632654 5.2551509e-39
1.4334853 -1.7157322 -3.5762787e-06 5.2551509e-39
1.4433273 -1.7159134 -3.0398369e-06 5.2551509e-39
1.4537654 -1.7153434 -2.8808911e-06 5.2551509e-39
1.464286 -1.7147714 -4.5895576e-06 5.2551509e-39
1.4748856 -1.7141919 -3.8743019e-06 5.2551509e-39
1.4850309 -1.7143711 -2.69413e-06 5.2551509e-39
1.4963347 -1.7148627 -3.695488e-06 5.2551509e-39
1.507185 -1.7161263 -3.3577282e-06 5.2551509e-39
1.5153775 -1.7156914 -4.4107437e-06 5.2551509e-39
1.5236235 -1.7152532 -5.0067902e-06 5.2551509e-39
1.5346886 -1.7146624 -3.8743019e-06 5.2551509e-39
1.5458422 -1.7140676 -3.2782555e-06 5.2551509e-39
1.5570872 -1.7153531 -4.8279762e-06 5.2551509e-39
1.5655745 -1.714905 -3.5762787e-06 5.2551509e-39
1.5746925 -1.7155644 -4.529953e-06 5.2551509e-39
1.585591 -1.7157542 -3.8146973e-06 5.2551509e-39
1.5942526 -1.715305 -4.2915344e-06 5.2551509e-39
1.6029717 -1.7148514 -3.6756198e-06 5.2551509e-39
1.6146766 -1.7142439 -3.8743019e-06 5.2551509e-39
1.6264805 -1.7155631 -6.377697e-06 5.2551509e-39
1.6353906 -1.7151052 -5.4836273e-06 5.2551509e-39
1.644361 -1.7146435 -4.0531158e-06 5.2551509e-39
1.6570104 -1.7151645 -3.5524367e-06 5.2551509e-39
1.665502 -1.7155132 -3.3378601e-06 5.2551509e-39
1.6746616 -1.7150503 -3.6358833e-06 5.2551509e-39
1.6838719 -1.7145842 -3.4570694e-06 5.2551509e-39
1.6931481 -1.7141167 -4.8279762e-06 5.2551509e-39
1.7056023 -1.7154692 -5.9604645e-06 5.2551509e-39
1.7150058 -1.7149978 -4.529953e-06 5.2551509e-39
1.7244778 -1.7145256 -5.0067902e-06 5.2551509e-39
1.7340018 -1.7140491 -4.2915344e-06 5.2551509e-39
1.7435941 -1.7155762 -3.9339066e-06 5.2551509e-39
1.756475 -1.7149414 -3.6358833e-06 5.2551509e-39
1.7662059 -1.7144632 -4.529953e-06 5.2551509e-39
1.7753509 -1.714825 -4.9352648e-06 5.2551509e-39
1.7858629 -1.7155306 -5.364418e-06 5.2551509e-39
1.7957883 -1.7150466 -4.0531158e-06 5.2551509e-39
1.8057724 -1.714561 -3.695488e-06 5.2551509e-39
1.8158312 -1.7140737 -4.8577785e-06 5.2551509e-39
1.8259455 -1.715642 -3.8146973e-06 5.2551509e-39
1.8361362 -1.7151545 -4.4902167e-06 5.2551509e-39
1.8463861 -1.7146635 -4.6491623e-06 5.2551509e-39
1.8532623 -1.7143369 -6.9141388e-06 5.2551509e-39
1.8636305 -1.7159241 -5.1856041e-06 5.2551509e-39
1.8740611 -1.7154297 -4.1723251e-06 5.2551509e-39
1.8845706 -1.7149332 -4.2319298e-06 5.2551509e-39
1.8951429 -1.7144334 -4.1723251e-06 5.2551509e-39
1.9057943 -1.7139304 -4.4703484e-06 5.2551509e-39
1.9165071 -1.7155433 -2.7418137e-06 5.2551509e-39
1.9236966 -1.7152115 -5.2452087e-06 5.2551509e-39
1.9345412 -1.7147064 -5.2650771e-06 5.2551509e-39
1.9454532 -1.7163403 -6.5565109e-06 5.2551509e-39
1.9527701 -1.7160038 -6.0796738e-06 5.2551509e-39
1.9638107 -1.7154942 -4.2915344e-06 5.2551509e-39
1.9749229 -1.7149853 -5.4836273e-06 5.2551509e-39
1.9861183 -1.7144707 -5.1259995e-06 5.2551509e-39
1.9973806 -1.7139513 -3.5762787e-06 5.2551509e-39
2.0049379 -1.7136052 -4.1723251e-06 5.2551509e-39
2.0125306 -1.7154435 -5.4836273e-06 5.2551509e-39
2.023988 -1.7149249 -5.4836273e-06 5.2551509e-39
2.0355167 -1.7144035 -5.8412552e-06 5.2551509e-39
2.0432487 -1.7162578 -4.529953e-06 5.2551509e-39
2.0549231 -1.7157381 -5.3048134e-06 5.2551509e-39
2.0666695 -1.7152143 -5.364418e-06 5.2551509e-39
2.0745511 -1.714864 -6.3180923e-06 5.2551509e-39
2.0824656 -1.7145083 -4.2915344e-06 5.2551509e-39
2.0944176 -1.7139757 -4.529953e-06 5.2551509e-39
2.1064503 -1.7134435 -8.1062317e-06 5.2551509e-39
2.1145167 -1.7153344 -5.9604645e-06 5.2551509e-39
2.1226251 -1.7149787 -6.3180923e-06 5.2551509e-39
2.1340466 -1.7153847 -6.1273577e-06 5.2551509e-39
2.1471832 -1.7161739 -5.6028366e-06 5.2551509e-39
2.1554499 -1.7158172 -6.3180923e-06 5.2551509e-39
2.1637518 -1.7154551 -4.0531158e-06 5.2551509e-39
1.2644502 -1.7031808 -5.2054725e-06 5.2551509e-39
1.2750804 -1.704761 -2.22524e-06 5.2551509e-39
1.2865671 -1.7040457 -4.6491623e-06 5.2551509e-39
1.2953665 -1.7041781 -3.9577485e-06 5.2551509e-39
1.3051654 -1.7063121 -5.3842864e-06 5.2551509e-39
1.3145643 -1.7057339 -3.516674e-06 5.2551509e-39
1.3240346 -1.7051553 -4.4703484e-06 5.2551509e-39
1.3335718 -1.7045685 -2.3841858e-06 5.2551509e-39
1.3431835 -1.7039827 -4.6690307e-06 5.2551509e-39
1.3523769 -1.7041168 -3.0994415e-06 5.2551509e-39
1.3650699 -1.7061507 -4.1723251e-06 5.2551509e-39
1.377381 -1.7054114 -2.8014183e-06 5.2551509e-39
1.3873186 -1.7048181 -4.3511391e-06 5.2551509e-39
1.3973284 -1.7042166 -3.0795734e-06 5.2551509e-39
1.4069109 -1.7043591 -5.0306321e-06 5.2551509e-39
1.4150299 -1.7049463 -4.8875809e-06 5.2551509e-39
1.4232028 -1.7055387 -4.839897e-06 5.2551509e-39
1.4329692 -1.7056814 -3.4570694e-06 5.2551509e-39
1.4433273 -1.705074 -3.0398369e-06 5.2551509e-39
1.4537648 -1.7044617 -2.3841858e-06 5.2551509e-39
1.4642854 -1.7038478 -4.0729842e-06 5.2551509e-39
1.4748856 -1.7050539 -3.8743019e-06 5.2551509e-39
1.4855736 -1.7048961 -0.00068523176 5.2551509e-39
1.4963354 -1.7056545 -4.4107437e-06 5.2551509e-39
1.5071856 -1.7050325 -3.8743019e-06 5.2551509e-39
1.5153775 -1.7045645 -4.4107437e-06 5.2551509e-39
1.5236235 -1.704093 -5.0067902e-06 5.2551509e-39
1.5346886 -1.7053255 -3.8743019e-06 5.2551509e-39
1.5458416 -1.704693 -2.8014183e-06 5.2551509e-39
1.5570873 -1.7059417 -4.8279762e-06 5.2551509e-39
1.5655745 -1.7054653 -3.5762787e-06 5.2551509e-39
1.5741214 -1.704989 -4.609426e-06 5.2551509e-39
1.5855919 -1.7043473 -4.529953e-06 5.2551509e-39
1.5942526 -1.7038628 -4.2915344e-06 5.2551509e-39
1.6029718 -1.7052877 -3.9339066e-06 5.2551509e-39
1.6146767 -1.7046409 -3.8743019e-06 5.2551509e-39
1.6258905 -1.7057017 -0.00023084735 5.2551509e-39
1.6353906 -1.705433 -5.4836273e-06 5.2551509e-39
1.6443609 -1.7049414 -4.0531158e-06 5.2551509e-39
1.6564059 -1.7042836 -3.695488e-06 5.2551509e-39
1.6655018 -1.7057409 -3.3378601e-06 5.2551509e-39
1.6746616 -1.7052474 -3.6358833e-06 5.2551509e-39
1.683872 -1.7047508 -3.4570694e-06 5.2551509e-39
1.693149 -1.7042533 -5.4836273e-06 5.2551509e-39
1.7056028 -1.7055639 -6.3180923e-06 5.2551509e-39
1.7150058 -1.7050606 -4.529953e-06 5.2551509e-39
1.7244778 -1.7045571 -5.0067902e-06 5.2551509e-39
1.7340018 -1.7040488 -4.2915344e-06 5.2551509e-39
1.7445142 -1.7055302 -0.00053635926 5.2551509e-39
1.7564749 -1.7048662 -3.6358833e-06 5.2551509e-39
1.7662042 -1.704354 -3.2186508e-06 5.2551509e-39
1.7766615 -1.7050247 -5.0783156e-06 5.2551509e-39
1.7858629 -1.7053579 -5.364418e-06 5.2551509e-39
1.7957894 -1.7048416 -4.9273171e-06 5.2551509e-39
1.8057724 -1.7043217 -3.695488e-06 5.2551509e-39
1.815832 -1.7058562 -5.4836273e-06 5.2551509e-39
1.8259455 -1.7053357 -3.8146973e-06 5.2551509e-39
1.8361359 -1.704814 -4.2319298e-06 5.2551509e-39
1.8463852 -1.7042884 -4.0531158e-06 5.2551509e-39
1.8532623 -1.7039397 -6.9141388e-06 5.2551509e-39
1.8636307 -1.7054924 -5.1856041e-06 5.2551509e-39
1.8740611 -1.7049632 -4.1723251e-06 5.2551509e-39
1.8845706 -1.7044317 -4.2319298e-06 5.2551509e-39
1.8951429 -1.7060041 -4.1723251e-06 5.2551509e-39
1.9057941 -1.7054727 -4.4703484e-06 5.2551509e-39
1.9165078 -1.7049364 -3.3378601e-06 5.2551509e-39
1.9236944 -1.7045778 -3.5762787e-06 5.2551509e-39
1.934541 -1.7040384 -5.0365925e-06 5.2551509e-39
1.9454532 -1.7056364 -6.5565109e-06 5.2551509e-39
1.9527701 -1.7052754 -6.0796738e-06 5.2551509e-39
1.9638108 -1.704729 -4.2915344e-06 5.2551509e-39
1.9749229 -1.7063435 -5.4836273e-06 5.2551509e-39
1.9861183 -1.7057992 -5.1259995e-06 5.2551509e-39
1.9973806 -1.7052498 -3.5762787e-06 5.2551509e-39
2.0049379 -1.7048836 -4.1723251e-06 5.2551509e-39
2.0125268 -1.7045128 -2.8610229e-06 5.2551509e-39
2.023988 -1.7039595 -5.4836273e-06 5.2551509e-39
2.0355167 -1.7033997 -5.8412552e-06 5.2551509e-39
2.0432498 -1.7052293 -5.364418e-06 5.2551509e-39
2.0549247 -1.7046714 -6.5565109e-06 5.2551509e-39
2.0666695 -1.7063284 -5.364418e-06 5.2551509e-39
2.0745511 -1.7059572 -6.4373016e-06 5.2551509e-39
2.0824656 -1.7055802 -4.2915344e-06 5.2551509e-39
2.0944173 -1.7050159 -4.529953e-06 5.2551509e-39
2.1064465 -1.7044485 -5.6028366e-06 5.2551509e-39
2.1145167 -1.7040677 -5.9604645e-06 5.2551509e-39
2.1226251 -1.703685 -6.3180923e-06 5.2551509e-39
2.1356843 -1.7044296 -6.3896177e-06 5.2551509e-39
2.1471832 -1.7047983 -5.6028366e-06 5.2551509e-39
2.1554499 -1.7066948 -6.3180923e-06 5.2551509e-39
2.1637518 -1.7063105 -4.0531158e-06 5.2551509e-39
2.1720989 -1.7036363 -4.7683716e-06 5.2551509e-39
2.1861038 -1.7045189 -4.8081079e-06 5.2551509e-39
2.1973846 -1.7024604 -6.4373016e-06 5.2551509e-39
1.2456901 -1.691532 -6.377697e-06 5.2551509e-39
1.255108 -1.6952524 -3.0755996e-06 5.2551509e-39
1.2636939 -1.6953546 -4.4703484e-06 5.2551509e-39
1.2750806 -1.6945937 -2.22524e-06 5.2551509e-39
1.2865661 -1.693831 -3.6160152e-06 5.2551509e-39
1.2962967 -1.6959187 -4.2676925e-06 5.2551509e-39
1.3051665 -1.6960258 -6.4969063e-06 5.2551509e-39
1.3145643 -1.6954089 -3.516674e-06 5.2551509e-39
1.3240347 -1.6947922 -4.4703484e-06 5.2551509e-39
1.3335719 -1.6941675 -2.3841858e-06 5.2551509e-39
1.3427005 -1.6942704 -3.8862227e-06 5.2551509e-39
1.3533483 -1.6956732 -2.7418137e-06 5.2551509e-39
1.3650699 -1.6956239 -4.1723251e-06 5.2551509e-39
1.377381 -1.6948353 -2.8014183e-06 5.2551509e-39
1.3873186 -1.6942024 -4.3511391e-06 5.2551509e-39
1.3968261 -1.6943045 -3.3140182e-06 5.2551509e-39
1.4079223 -1.6957388 -3.8862227e-06 5.2551509e-39
1.4150299 -1.6960077 -4.8875809e-06 5.2551509e-39
1.4226907 -1.695528 -4.7087669e-06 5.2551509e-39
1.4329692 -1.6948832 -3.4570694e-06 5.2551509e-39
1.4433273 -1.6942345 -3.0398369e-06 5.2551509e-39
1.4532408 -1.6943394 -2.2172928e-06 5.2551509e-39
1.4642844 -1.6947439 -3.0398369e-06 5.2551509e-39
1.4748863 -1.6959168 -4.4306121e-06 5.2551509e-39
1.4855677 -1.6952609 -3.0398369e-06 5.2551509e-39
1.496334 -1.6946014 -2.9802322e-06 5.2551509e-39
1.5071856 -1.6939381 -3.8743019e-06 5.2551509e-39
1.5153775 -1.6952916 -4.4107437e-06 5.2551509e-39
1.5236235 -1.6947929 -5.0067902e-06 5.2551509e-39
1.5346886 -1.6959887 -3.8743019e-06 5.2551509e-39
1.5458416 -1.6953188 -2.8014183e-06 5.2551509e-39
1.557086 -1.6946468 -3.8345656e-06 5.2551509e-39
1.5655756 -1.6941389 -4.45048e-06 5.2551509e-39
1.5735502 -1.6944196 -4.7922135e-06 5.2551509e-39
1.5855918 -1.694841 -4.529953e-06 5.2551509e-39
1.5942526 -1.6943276 -4.2915344e-06 5.2551509e-39
1.6029717 -1.6957235 -3.9339066e-06 5.2551509e-39
1.6146768 -1.6950377 -3.8743019e-06 5.2551509e-39
1.6264777 -1.6943464 -4.0531158e-06 5.2551509e-39
1.6353906 -1.695761 -5.4836273e-06 5.2551509e-39
1.644361 -1.6952394 -4.0531158e-06 5.2551509e-39
1.6564059 -1.6945415 -3.695488e-06 5.2551509e-39
1.6655025 -1.6959692 -3.8544335e-06 5.2551509e-39
1.6746632 -1.6954464 -4.9471855e-06 5.2551509e-39
1.6838719 -1.6949173 -3.4570694e-06 5.2551509e-39
1.6931473 -1.6943871 -4.1723251e-06 5.2551509e-39
1.7056028 -1.6956581 -6.3180923e-06 5.2551509e-39
1.7150058 -1.6951237 -4.529953e-06 5.2551509e-39
1.7244778 -1.6945884 -5.0067902e-06 5.2551509e-39
1.7340018 -1.6940485 -4.2915344e-06 5.2551509e-39
1.7435938 -1.6955118 -3.9339066e-06 5.2551509e-39
1.7564749 -1.6947912 -3.6358833e-06 5.2551509e-39
1.7662042 -1.6942466 -3.2186508e-06 5.2551509e-39
1.7760043 -1.6957271 -3.5762787e-06 5.2551509e-39
1.7858646 -1.6951866 -6.7949295e-06 5.2551509e-39
1.79579 -1.6946363 -5.364418e-06 5.2551509e-39
1.8057724 -1.6940825 -3.695488e-06 5.2551509e-39
1.8158318 -1.6955837 -5.4836273e-06 5.2551509e-39
1.8259455 -1.6950294 -3.8146973e-06 5.2551509e-39
1.8361359 -1.6944736 -4.2319298e-06 5.2551509e-39
1.8463843 -1.6959882 -3.4570694e-06 5.2551509e-39
1.8532605 -1.6956203 -5.6624413e-06 5.2551509e-39
1.8636305 -1.6950606 -5.1856041e-06 5.2551509e-39
1.8740611 -1.6944968 -4.1723251e-06 5.2551509e-39
1.8845711 -1.6939306 -4.529953e-06 5.2551509e-39
1.8951429 -1.6954676 -4.1723251e-06 5.2551509e-39
1.9056098 -1.6942683 -0.00031936672 5.2551509e-39
1.9165087 -1.6943294 -3.9339066e-06 5.2551509e-39
1.9236944 -1.6960725 -3.5762787e-06 5.2551509e-39
1.93454 -1.6955035 -4.4107437e-06 5.2551509e-39
1.9454532 -1.6949322 -6.5565109e-06 5.2551509e-39
1.9527701 -1.6945469 -6.0796738e-06 5.2551509e-39
1.9638107 -1.6939639 -4.2915344e-06 5.2551509e-39
1.9749228 -1.6955414 -5.4836273e-06 5.2551509e-39
1.9861183 -1.6949596 -5.1259995e-06 5.2551509e-39
1.9973806 -1.694373 -3.5762787e-06 5.2551509e-39
2.0049379 -1.696162 -4.1723251e-06 5.2551509e-39
2.0125268 -1.6957711 -2.8610229e-06 5.2551509e-39
2.0239885 -1.6951876 -5.8114529e-06 5.2551509e-39
2.0355167 -1.6945965 -5.8412552e-06 5.2551509e-39
2.0432522 -1.6942017 -7.0333481e-06 5.2551509e-39
2.054925 -1.6936028 -6.5565109e-06 5.2551509e-39
2.0666695 -1.6952208 -5.364418e-06 5.2551509e-39
2.0745513 -1.6948236 -6.5565109e-06 5.2551509e-39
2.0824656 -1.6966522 -4.2915344e-06 5.2551509e-39
2.0944176 -1.6960559 -4.529953e-06 5.2551509e-39
2.1064465 -1.6954565 -5.6028366e-06 5.2551509e-39
2.1145148 -1.6950529 -4.7683716e-06 5.2551509e-39
2.1226251 -1.6946499 -6.3180923e-06 5.2551509e-39
2.1348653 -1.6940387 -6.2584877e-06 5.2551509e-39
2.146466 -1.6928095 -0.00098363671 5.2551509e-39
2.1554499 -1.6952919 -6.3180923e-06 5.2551509e-39
2.1637526 -1.6948804 -4.4902167e-06 5.2551509e-39
2.1720989 -1.6967613 -4.7683716e-06 5.2551509e-39
2.1847 -1.6961496 -5.364418e-06 5.2551509e-39
2.1973846 -1.6955348 -6.4373016e-06 5.2551509e-39
1.2360423 -1.6827332 -2.4239223e-06 5.2551509e-39
1.2461373 -1.685805 -6.5803529e-06 5.2551509e-39
1.2546577 -1.6858683 -2.9802322e-06 5.2551509e-39
1.2636939 -1.6852326 -4.4703484e-06 5.2551509e-39
1.2750807 -1.6844265 -2.4106766e-06 5.2551509e-39
1.2865671 -1.6836189 -4.6491623e-06 5.2551509e-39
1.2958317 -1.6863812 -4.1127205e-06 5.2551509e-39
1.3051665 -1.6857381 -6.4969063e-06 5.2551509e-39
1.3145643 -1.6850837 -3.516674e-06 5.2551509e-39
1.3240347 -1.6844293 -4.4703484e-06 5.2551509e-39
1.3335719 -1.6837664 -2.3841858e-06 5.2551509e-39
1.3436656 -1.6858555 -4.4584276e-06 5.2551509e-39
1.3528618 -1.6859231 -1.847744e-06 5.2551509e-39
1.3650707 -1.6850982 -5.2054725e-06 5.2551509e-39
1.377381 -1.6842594 -2.8014183e-06 5.2551509e-39
1.3868198 -1.684329 -4.3869018e-06 5.2551509e-39
1.3978312 -1.6857144 -3.3617021e-06 5.2551509e-39
1.4074154 -1.6857861 -3.2186508e-06 5.2551509e-39
1.4150299 -1.6852813 -4.8875809e-06 5.2551509e-39
1.4226907 -1.6847711 -4.7087669e-06 5.2551509e-39
1.4329692 -1.6840852 -3.4570694e-06 5.2551509e-39
1.4433272 -1.6852019 -3.0398369e-06 5.2551509e-39
1.4541425 -1.6860861 -0.0013211863 5.2551509e-39
1.4642853 -1.6856421 -3.7550926e-06 5.2551509e-39
1.4748865 -1.6849518 -4.7087669e-06 5.2551509e-39
1.4858935 -1.6841581 -0.00070810749 5.2551509e-39
1.4957919 -1.6843214 -1.5974044e-06 5.2551509e-39
1.5071855 -1.6846926 -3.8743019e-06 5.2551509e-39
1.5153775 -1.6860191 -4.4107437e-06 5.2551509e-39
1.5236235 -1.6854929 -5.0067902e-06 5.2551509e-39
1.5346886 -1.6847843 -3.8743019e-06 5.2551509e-39
1.5458422 -1.6840707 -3.3577282e-06 5.2551509e-39
1.5570865 -1.6852354 -3.9935112e-06 5.2551509e-39
1.5655762 -1.6846998 -4.8875809e-06 5.2551509e-39
1.5746936 -1.6852611 -5.4597854e-06 5.2551509e-39
1.5855918 -1.6853347 -4.529953e-06 5.2551509e-39
1.5942526 -1.6847925 -4.2915344e-06 5.2551509e-39
1.6029717 -1.6842464 -3.9339066e-06 5.2551509e-39
1.6146767 -1.6854346 -3.8743019e-06 5.2551509e-39
1.6264771 -1.6847037 -3.5762787e-06 5.2551509e-39
1.6353894 -1.6860877 -4.5696893e-06 5.2551509e-39
1.6443611 -1.6855379 -4.3114028e-06 5.2551509e-39
1.6564069 -1.6848003 -4.5100846e-06 5.2551509e-39
1.6649957 -1.683574 -0.00078616961 5.2551509e-39
1.6746633 -1.6856437 -4.9471855e-06 5.2551509e-39
1.683872 -1.6850839 -3.4570694e-06 5.2551509e-39
1.6931474 -1.6845229 -4.1723251e-06 5.2551509e-39
1.7056006 -1.68575 -4.45048e-06 5.2551509e-39
1.7150058 -1.6851867 -4.529953e-06 5.2551509e-39
1.7244778 -1.6846199 -5.0067902e-06 5.2551509e-39
1.733276 -1.6846005 -0.001401483 5.2551509e-39
1.7435941 -1.6854796 -3.9339066e-06 5.2551509e-39
1.7564757 -1.6847168 -4.2915344e-06 5.2551509e-39
1.7662042 -1.6841393 -3.2186508e-06 5.2551509e-39
1.7760048 -1.6855873 -3.8544335e-06 5.2551509e-39
1.7858645 -1.6850137 -6.7949295e-06 5.2551509e-39
1.7957901 -1.6844305 -5.364418e-06 5.2551509e-39
1.8057724 -1.6858912 -3.695488e-06 5.2551509e-39
1.8158319 -1.6853111 -5.4836273e-06 5.2551509e-39
1.8259455 -1.6847231 -3.8146973e-06 5.2551509e-39
1.8361359 -1.6841335 -4.2319298e-06 5.2551509e-39
1.8463844 -1.6856138 -3.4570694e-06 5.2551509e-39
1.8532587 -1.6852216 -4.4107437e-06 5.2551509e-39
1.8636299 -1.6846284 -4.7485032e-06 5.2551509e-39
1.8740621 -1.6861244 -4.7683716e-06 5.2551509e-39
1.8845716 -1.6855299 -4.8279762e-06 5.2551509e-39
1.8951429 -1.684931 -4.1723251e-06 5.2551509e-39
1.9057951 -1.6843293 -5.0663948e-06 5.2551509e-39
1.9165087 -1.6837218 -3.9339066e-06 5.2551509e-39
1.9236943 -1.6854409 -3.5762787e-06 5.2551509e-39
1.9345402 -1.6848358 -4.4107437e-06 5.2551509e-39
1.9454532 -1.6863689 -6.5565109e-06 5.2551509e-39
1.9527701 -1.6859642 -6.0796738e-06 5.2551509e-39
1.9638107 -1.6853518 -4.2915344e-06 5.2551509e-39
1.9749229 -1.6847392 -5.4836273e-06 5.2551509e-39
1.9861183 -1.6841204 -5.1259995e-06 5.2551509e-39
1.9973814 -1.6834968 -4.2319298e-06 5.2551509e-39
2.0049379 -1.6852598 -4.1723251e-06 5.2551509e-39
2.0125287 -1.6848454 -4.1723251e-06 5.2551509e-39
2.0232217 -1.6851418 -5.4836273e-06 5.2551509e-39
2.0355167 -1.6857934 -5.8412552e-06 5.2551509e-39
2.0432522 -1.6853781 -7.0333481e-06 5.2551509e-39
2.054925 -1.6847482 -6.5565109e-06 5.2551509e-39
2.0666695 -1.6841133 -5.364418e-06 5.2551509e-39
2.0745513 -1.6836898 -6.5565109e-06 5.2551509e-39
2.0824656 -1.6854922 -4.2915344e-06 5.2551509e-39
2.0944173 -1.6848561 -4.529953e-06 5.2551509e-39
2.1064465 -1.6864647 -5.6028366e-06 5.2551509e-39
2.1145129 -1.686038 -3.5762787e-06 5.2551509e-39
2.1226244 -1.6856142 -5.7816505e-06 5.2551509e-39
2.1348653 -1.6849712 -6.2584877e-06 5.2551509e-39
2.147187 -1.6843257 -8.1062317e-06 5.2551509e-39
2.1554499 -1.6838888 -6.3180923e-06 5.2551509e-39
2.1637537 -1.6834507 -5.364418e-06 5.2551509e-39
2.1720989 -1.6853029 -4.7683716e-06 5.2551509e-39
2.1838574 -1.6856143 -5.4597854e-06 5.2551509e-39
2.1973846 -1.6863008 -6.4373016e-06 5.2551509e-39
1.2169653 -1.6719691 -2.8610229e-06 5.2551509e-39
1.2239769 -1.6740868 -4.1484832e-06 5.2551509e-39
1.2345657 -1.6739448 -2.6623409e-06 5.2551509e-39
1.2456887 -1.6764535 -4.7087669e-06 5.2551509e-39
1.2546577 -1.6757826 -2.9802322e-06 5.2551509e-39
1.2636939 -1.6751107 -4.4703484e-06 5.2551509e-39
1.275081 -1.6742595 -2.7815502e-06 5.2551509e-39
1.2861056 -1.6741219 -4.7922135e-06 5.2551509e-39
1.2958301 -1.676129 -2.4437904e-06 5.2551509e-39
1.3051665 -1.6754504 -6.4969063e-06 5.2551509e-39
1.3145643 -1.6747586 -3.516674e-06 5.2551509e-39
1.3240347 -1.6740664 -4.4703484e-06 5.2551509e-39
1.333093 -1.6740944 -2.2649765e-06 5.2551509e-39
1.343183 -1.6761436 -4.1723251e-06 5.2551509e-39
1.3528627 -1.6754462 -2.9206276e-06 5.2551509e-39
1.3650707 -1.6745715 -5.2054725e-06 5.2551509e-39
1.3768857 -1.6744244 -2.4557114e-06 5.2551509e-39
1.3878171 -1.6757672 -4.3153764e-06 5.2551509e-39
1.3973287 -1.6758019 -3.3577282e-06 5.2551509e-39
1.4074154 -1.67509 -3.2186508e-06 5.2551509e-39
1.4150277 -1.6745524 -2.8212864e-06 5.2551509e-39
1.4226907 -1.6740142 -4.7087669e-06 5.2551509e-39
1.4329696 -1.6750873 -3.8146973e-06 5.2551509e-39
1.443328 -1.67617 -3.8146973e-06 5.2551509e-39
1.4537657 -1.6754465 -3.0994415e-06 5.2551509e-39
1.4642853 -1.6747192 -3.7550926e-06 5.2551509e-39
1.4748865 -1.6739863 -4.7087669e-06 5.2551509e-39
1.4855676 -1.6750795 -3.0398369e-06 5.2551509e-39
1.4968727 -1.6754086 -1.5020371e-06 5.2551509e-39
1.507184 -1.6754456 -2.3841858e-06 5.2551509e-39
1.5153775 -1.6748918 -4.4107437e-06 5.2551509e-39
1.5236236 -1.6743331 -5.2452087e-06 5.2551509e-39
1.5341339 -1.6743664 -4.6491623e-06 5.2551509e-39
1.5458425 -1.674697 -3.6358833e-06 5.2551509e-39
1.5570865 -1.675824 -3.9935112e-06 5.2551509e-39
1.5655762 -1.6752601 -4.8875809e-06 5.2551509e-39
1.574122 -1.6746916 -5.1259995e-06 5.2551509e-39
1.5850157 -1.6747262 -4.2676925e-06 5.2551509e-39
1.5942526 -1.6752573 -4.2915344e-06 5.2551509e-39
1.6029718 -1.6746823 -3.9339066e-06 5.2551509e-39
1.6146766 -1.6758313 -3.8743019e-06 5.2551509e-39
1.6264777 -1.6750618 -4.0531158e-06 5.2551509e-39
1.6353873 -1.674479 -2.7418137e-06 5.2551509e-39
1.6437622 -1.6747124 -4.9114228e-06 5.2551509e-39
1.6564069 -1.6750584 -4.529953e-06 5.2551509e-39
