# .PCD v0.7 - Point Cloud Data file format
VERSION 0.7
FIELDS x y z rgb
SIZE 4 4 4 4
TYPE F F F F
COUNT 1 1 1 1
WIDTH 1018
HEIGHT 1
VIEWPOINT 0 0 0 1 0 0 0
POINTS 1018
DATA ascii
0.62489551 -0.025027862 0.61000055 1.0879084e-38
0.63517106 -0.025187159 0.61000055 1.0879084e-38
0.6442852 -0.024612308 0.61000061 1.0879084e-38
0.65469116 -0.024972506 0.61000067 1.0879084e-38
0.66509879 -0.025134344 0.61000067 1.0879084e-38
0.67556429 -0.024291748 0.61149049 1.0879083e-38
0.68207753 -0.02637138 0.61231643 1.0786887e-38
0.84911132 -0.021374865 0.61000198 1.1708485e-38
0.85544837 -0.024367247 0.61000204 1.1155311e-38
0.86449116 -0.024933768 0.61000216 1.0879084e-38
0.549389 -0.012995335 0.61000001 1.0879084e-38
0.56545597 -0.015132361 0.61000001 1.0879084e-38
0.57570481 -0.015432539 0.61000037 1.0879084e-38
0.5848785 -0.015311057 0.61000037 1.0879084e-38
0.59474069 -0.014926787 0.61000037 1.0879084e-38
0.60530394 -0.014558578 0.61000043 1.0879084e-38
0.61510837 -0.014832691 0.61000055 1.0879084e-38
0.62506676 -0.015111102 0.61000055 1.0879084e-38
0.63517106 -0.015393592 0.61000055 1.0879084e-38
0.64428508 -0.014752011 0.61000061 1.0879084e-38
0.65469116 -0.015036013 0.61000067 1.0879084e-38
0.66525322 -0.015324274 0.61000073 1.0879084e-38
0.67384499 -0.015500631 0.61237913 1.0879083e-38
0.84690326 -0.014282045 0.61000198 1.1247865e-38
0.85522932 -0.014288255 0.61000198 1.0879084e-38
0.86449128 -0.014504043 0.61000216 1.0879084e-38
0.51681823 -0.0068728551 0.61268216 1.0786889e-38
0.549389 -0.0088292211 0.61000001 1.0879084e-38
0.56545603 -0.0050053536 0.61000007 1.0879084e-38
0.57570493 -0.0052236659 0.61000019 1.0879084e-38
0.58506912 -0.0054231342 0.61000037 1.0879084e-38
0.59442967 -0.0054731914 0.61000043 1.0879084e-38
0.60528922 -0.0051459223 0.61037624 1.0879084e-38
0.61510837 -0.0051860353 0.61000049 1.0879084e-38
0.62506658 -0.00450793 0.61000055 1.0879084e-38
0.63517118 -0.0047097099 0.61000055 1.0879084e-38
0.6442852 -0.0048917164 0.61000061 1.0879084e-38
0.6546911 -0.0050995229 0.61000067 1.0879084e-38
0.66549242 -0.0053354339 0.61206961 1.0878723e-38
0.67118883 -0.0072575761 0.61000085 1.0786889e-38
0.83702624 -0.0015678722 0.61000192 1.0971663e-38
0.84483069 -0.0052015446 0.61000192 1.0879086e-38
0.85522932 -0.0049569872 0.61000204 1.0879084e-38
0.8644914 -0.0051172855 0.6100021 1.0879084e-38
0.549389 0.0078352271 0.61000001 1.0786889e-38
0.56545603 0.0051216572 0.61000001 1.0879084e-38
0.57570499 0.004985211 0.61000037 1.0879084e-38
0.58506912 0.0048605446 0.61000037 1.0879084e-38
0.59457672 0.0047339676 0.61000043 1.0879084e-38
0.60530388 0.0045911544 0.61000055 1.0879084e-38
0.61510831 0.0044606244 0.61000055 1.0879084e-38
0.6250667 0.0052116476 0.61000055 1.0879084e-38
0.63517094 0.0050838529 0.61000055 1.0879084e-38
0.64428514 0.0049685831 0.61000061 1.0879084e-38
0.65496737 0.0050407718 0.61059958 1.0786887e-38
0.66257781 0.003725084 0.61216086 1.0786527e-38
0.83485228 0.0055335145 0.61000198 1.0602504e-38
0.84456462 0.0044949655 0.61000186 1.0879084e-38
0.8552292 0.004374281 0.61000198 1.0879084e-38
0.86449128 0.0042694709 0.61000216 1.0879084e-38
0.54764575 0.015123072 0.61294109 1.0786889e-38
0.56545609 0.015248666 0.61000007 1.0786889e-38
0.57570499 0.015194088 0.61000025 1.0879084e-38
0.58506906 0.015144222 0.61000037 1.0879084e-38
0.59457684 0.015093593 0.61000043 1.0879084e-38
0.60530388 0.015036467 0.61000049 1.0879084e-38
0.61510831 0.014984255 0.61000055 1.0879084e-38
0.62506652 0.014931223 0.61000055 1.0879084e-38
0.635171 0.014877417 0.61000055 1.0879084e-38
0.64450651 0.015008361 0.6103459 1.0879084e-38
0.65374839 0.014128166 0.61122537 1.0879083e-38
0.82644337 0.016005361 0.61000186 1.0326285e-38
0.83403802 0.0148411 0.61000192 1.0879084e-38
0.84456462 0.014792052 0.61000186 1.0879084e-38
0.85522938 0.014742359 0.6100021 1.0879084e-38
0.8644914 0.014699202 0.61000216 1.0879084e-38
0.41501728 0.021818943 0.611103 8.3064685e-39
0.57570493 0.025402971 0.61000019 1.0786889e-38
0.58506912 0.0254279 0.61000037 1.0786889e-38
0.5945766 0.025453217 0.61000043 1.0786889e-38
0.60530394 0.025481781 0.61000049 1.0879084e-38
0.61510837 0.025507884 0.61000055 1.0879084e-38
0.62506682 0.025534399 0.61000055 1.0879084e-38
0.63500959 0.024924388 0.61000055 1.0879084e-38
0.64482224 0.02468547 0.61188114 1.1063474e-38
0.65061933 0.022449732 0.61000067 1.0879084e-38
0.81827307 0.026722781 0.6100018 1.0326283e-38
0.82513154 0.025050331 0.61000186 1.0879084e-38
0.83403808 0.025068115 0.61000192 1.0879084e-38
0.84456462 0.025089139 0.61000186 1.0879084e-38
0.8552292 0.025110435 0.61000198 1.0879084e-38
0.86449116 0.025128929 0.61000216 1.0879084e-38
0.32528701 0.031349044 0.61889428 4.6134109e-40
0.46905246 0.037325576 0.61909688 8.3064699e-39
0.549389 0.031165455 0.61000001 1.0786889e-38
0.56545585 0.035502687 0.61000001 1.0786889e-38
0.57570493 0.035611842 0.61000031 1.0786889e-38
0.58487856 0.03531938 0.61000037 1.0786889e-38
0.59457678 0.034949541 0.61000037 1.0786889e-38
0.60530388 0.035056651 0.61000043 1.0786889e-38
0.61510849 0.035154544 0.61000049 1.0786889e-38
0.6250667 0.035253979 0.61000055 1.0786889e-38
0.63531852 0.034658972 0.61000055 1.0786889e-38
0.64282 0.034174506 0.61272252 1.0694693e-38
0.8076213 0.039086998 0.61000174 1.2814832e-38
0.8153584 0.035469163 0.61000168 1.0879086e-38
0.82516092 0.034993228 0.61052036 1.0786889e-38
0.83403814 0.035295129 0.61000192 1.0879084e-38
0.84456474 0.035386223 0.61000186 1.0879084e-38
0.85522932 0.035478514 0.61000198 1.0879084e-38
0.86449146 0.03555866 0.61000216 1.0879084e-38
0.40832201 0.04938532 0.61820036 1.0786889e-38
0.43945172 0.046598461 0.61747533 1.069469e-38
0.57554626 0.045162819 0.61000013 1.0694693e-38
0.58525974 0.04467351 0.61000037 1.0786889e-38
0.59457684 0.044445861 0.61000043 1.0786889e-38
0.605304 0.044631515 0.61000049 1.0786889e-38
0.61510831 0.044801209 0.61000055 1.0786889e-38
0.62506682 0.044973552 0.61000055 1.0786889e-38
0.63534659 0.04496764 0.61039823 1.0694693e-38
0.64397192 0.045627538 0.61000061 1.0602497e-38
0.650967 0.048485033 0.61000067 1.0786889e-38
0.80552965 0.045996632 0.61000168 1.1247867e-38
0.81487381 0.045228738 0.61000162 1.0879084e-38
0.82513154 0.045385785 0.61000186 1.0879084e-38
0.83403808 0.04552215 0.61000192 1.0879084e-38
0.84456456 0.045683309 0.61000186 1.0879084e-38
0.85500991 0.045546412 0.61000204 1.0879084e-38
0.86414802 0.04488302 0.61045599 1.0879084e-38
0.34531823 0.053794123 0.61585265 1.0786889e-38
0.55612022 0.051948518 0.61000007 1.0325911e-38
0.56207043 0.052019048 0.61000007 9.957128e-39
0.57742631 0.050680768 0.61000013 9.4961499e-39
0.58506912 0.051137097 0.61000019 1.0786889e-38
0.59457678 0.052215576 0.61000025 1.0325911e-38
0.6048044 0.052185364 0.61000037 1.0325911e-38
0.61565739 0.052853975 0.61000043 1.0694693e-38
0.62498367 0.055083469 0.61000055 1.0694693e-38
0.63517106 0.054941993 0.61000055 1.0786889e-38
0.6442852 0.055166475 0.61000061 1.0786889e-38
0.65452582 0.055273585 0.61030459 1.0694693e-38
0.66433263 0.057885006 0.61000067 1.0418106e-38
0.79795051 0.055704556 0.61000162 1.1340062e-38
0.80474597 0.055105709 0.61000162 1.0786889e-38
0.81487381 0.055328183 0.61000168 1.0786889e-38
0.8251316 0.055553518 0.61000186 1.0786889e-38
0.8340382 0.055749163 0.61000192 1.0786889e-38
0.84429789 0.055246975 0.61000192 1.0786889e-38
0.85537452 0.05493331 0.6106984 1.0786889e-38
0.86449128 0.054332174 0.61000216 1.0786889e-38
0.43748918 0.060366727 0.61366713 1.0786889e-38
0.62804008 0.061555952 0.61000043 1.0049324e-38
0.63554811 0.064197488 0.61000055 1.0602849e-38
0.64428514 0.065026768 0.61000061 1.0786889e-38
0.65453023 0.06519784 0.61000067 1.0786889e-38
0.66525322 0.064786389 0.61000067 1.0786889e-38
0.67372572 0.065955155 0.61046582 1.0694692e-38
0.68161041 0.068369277 0.61000079 1.0233715e-38
0.7952311 0.065196641 0.61000162 1.097128e-38
0.80474609 0.065137744 0.61000162 1.0786889e-38
0.8148737 0.065427631 0.61000168 1.0786889e-38
0.82513165 0.065721244 0.61000186 1.0786889e-38
0.83380848 0.065339647 0.61000198 1.0786889e-38
0.84480333 0.064440712 0.61000186 1.0786889e-38
0.85522938 0.064509131 0.6100021 1.0786889e-38
0.86449116 0.064761892 0.61000216 1.0786889e-38
0.87022239 0.062889382 0.61356074 1.0786889e-38
0.64514548 0.072455212 0.61000061 1.0695405e-38
0.65517658 0.074787892 0.61000067 1.0786887e-38
0.6652531 0.074800216 0.61000067 1.0786889e-38
0.67478347 0.075168163 0.61000067 1.0786889e-38
0.684255 0.074805699 0.61000085 1.0694693e-38
0.69375449 0.077202439 0.61000097 1.0786889e-38
0.70418805 0.078175955 0.61000103 1.0786889e-38
0.71427059 0.078578651 0.61000109 1.0786889e-38
0.72394621 0.078829035 0.61000109 1.0786889e-38
0.73487568 0.078444913 0.61000121 1.0319788e-38
0.74540466 0.07885842 0.61000127 1.0319788e-38
0.75474197 0.079225138 0.61000133 1.1432257e-38
0.76420641 0.079596847 0.61000144 1.1616648e-38
0.77471262 0.079351939 0.6100015 1.0786889e-38
0.78573722 0.075686015 0.61000156 1.097128e-38
0.79475915 0.074817434 0.61000162 1.0786889e-38
0.80474609 0.075169779 0.61000162 1.0786889e-38
0.8148737 0.075527065 0.61000162 1.0786889e-38
0.82492065 0.075590469 0.61000192 1.0786889e-38
0.8342514 0.074456654 0.61000198 1.0786889e-38
0.84456462 0.074515156 0.61000186 1.0786889e-38
0.85522932 0.074877188 0.61000198 1.0786889e-38
0.86449128 0.075191624 0.61000216 1.0786889e-38
0.42512318 0.083498955 0.6159156 1.0786889e-38
0.49181026 0.087463021 0.61997104 9.5007601e-39
0.65857792 0.081488118 0.61000067 1.0511011e-38
0.66588998 0.083443247 0.61000067 1.0786886e-38
0.67478347 0.085251771 0.61000067 1.0786889e-38
0.68444735 0.084772505 0.61000079 1.0786889e-38
0.69408685 0.085006215 0.61000079 1.0786889e-38
0.70418805 0.084729791 0.61000091 1.0786889e-38
0.71427053 0.085179485 0.61000091 1.0786889e-38
0.72468305 0.085371763 0.61000103 1.0786889e-38
0.73470503 0.084925734 0.61000139 1.0786889e-38
0.7454046 0.084640622 0.61000133 1.0786889e-38
0.75474209 0.08504463 0.61000144 1.0786889e-38
0.76420647 0.085454151 0.6100015 1.0786889e-38
0.77523667 0.085180469 0.61000156 1.0786889e-38
0.78489769 0.084369428 0.61000156 1.0786889e-38
0.79475915 0.084782995 0.61000162 1.0786889e-38
0.80474627 0.085201807 0.61000168 1.0786889e-38
0.8148737 0.085626528 0.61000168 1.0786889e-38
0.82513189 0.085038535 0.61000186 1.0786889e-38
0.8340382 0.084384814 0.61000186 1.0786889e-38
0.84456474 0.084812231 0.61000186 1.0786889e-38
0.85522932 0.085245274 0.6100021 1.0786889e-38
0.86449128 0.085621364 0.61000216 1.0786889e-38
0.35691634 0.094342217 0.61116165 1.0786889e-38
0.51224738 0.098247744 0.61949933 8.9497135e-39
0.67646199 0.091570362 0.61000085 1.0972695e-38
0.68494797 0.094411254 0.61000085 1.0879795e-38
0.69442439 0.095185243 0.61000079 1.0786889e-38
0.70418805 0.095028736 0.61000085 1.0786889e-38
0.71427059 0.094609268 0.61000097 1.0786889e-38
0.72449887 0.095133513 0.61000109 1.0786889e-38
0.73506254 0.095400892 0.61000127 1.0786889e-38
0.7451635 0.094790295 0.61000133 1.0786889e-38
0.75474203 0.094743818 0.61000144 1.0786889e-38
0.76420647 0.095216319 0.6100015 1.0786889e-38
0.77536881 0.095491782 0.6100015 1.0786889e-38
0.78489774 0.094269343 0.61000156 1.0786889e-38
0.79475921 0.094748534 0.61000156 1.0786889e-38
0.80474609 0.095233835 0.61000162 1.0786889e-38
0.8148737 0.095725961 0.61000162 1.0786889e-38
0.8253423 0.094490789 0.61000192 1.0786889e-38
0.83403802 0.094611816 0.61000192 1.0786889e-38
0.84456474 0.095109329 0.61000186 1.0786889e-38
0.85522926 0.095613353 0.61000198 1.0786889e-38
0.8644914 0.095008127 0.6100021 1.0786889e-38
0.34661889 0.10248448 0.61767477 1.0786889e-38
0.50873762 0.1006227 0.61563075 1.0602851e-38
0.695301 0.10302532 0.61035401 1.1249637e-38
0.7043854 0.10514276 0.61000091 1.0786889e-38
0.71427053 0.104982 0.61000091 1.0786889e-38
0.72449875 0.10463138 0.61000097 1.0786889e-38
0.73487568 0.10523232 0.61000127 1.0786889e-38
0.74564558 0.10532942 0.61000139 1.0786889e-38
0.75479597 0.10441875 0.61057168 1.0786889e-38
0.76420647 0.10497849 0.6100015 1.0786889e-38
0.7751714 0.10559889 0.6100015 1.0786889e-38
0.78472298 0.10453013 0.61000156 1.0786889e-38
0.79475921 0.1047141 0.61000156 1.0786889e-38
0.80474621 0.10526586 0.61000162 1.0786889e-38
0.8146435 0.10559946 0.61000162 1.0786889e-38
0.82543153 0.10422603 0.61005652 1.0786889e-38
0.83403814 0.10483883 0.61000186 1.0786889e-38
0.84456462 0.1054064 0.61000186 1.0786889e-38
0.8549934 0.10533004 0.61000204 1.0786889e-38
0.86449128 0.10439488 0.61000216 1.0786889e-38
0.37125689 0.11127819 0.61255294 3.6950419e-40
0.55469888 0.11850613 0.61000007 1.0511011e-38
0.70710927 0.11175583 0.61000103 1.0786889e-38
0.71427053 0.1134688 0.61000109 1.0786889e-38
0.72449869 0.11412921 0.61000115 1.0786889e-38
0.73501575 0.11462501 0.61039466 1.0786889e-38
0.7454046 0.11547909 0.61000139 1.0786889e-38
0.7545839 0.11481619 0.61000144 1.0786889e-38
0.76420659 0.11474065 0.6100015 1.0786889e-38
0.77517128 0.11543405 0.61000156 1.0786889e-38
0.7848978 0.11472789 0.61000156 1.0786889e-38
0.79475921 0.11467965 0.61000162 1.0786889e-38
0.80474621 0.1152979 0.61000162 1.0786889e-38
0.81479728 0.11517422 0.61000162 1.0786889e-38
0.82513165 0.11452635 0.61000174 1.0786889e-38
0.83403814 0.11506584 0.61000192 1.0786889e-38
0.8443253 0.11547158 0.61000186 1.0786889e-38
0.85544837 0.11458451 0.61000204 1.0786889e-38
0.86449128 0.11482462 0.61000216 1.0786889e-38
0.37741265 0.12475473 0.61470503 7.5600416e-39
0.48310992 0.12158227 0.61181724 1.0786889e-38
0.57513165 0.12678279 0.61000019 1.069469e-38
0.58472002 0.12795091 0.61000019 1.069469e-38
0.59305531 0.12880035 0.61000019 1.0511007e-38
0.60746527 0.12880549 0.61000037 1.0695752e-38
0.61291271 0.12968743 0.61000037 1.0511005e-38
0.72836661 0.12009313 0.61000115 1.3460562e-38
0.73618156 0.12377696 0.61000115 1.1247867e-38
0.7454046 0.12511611 0.61000133 1.0786889e-38
0.75490999 0.12542875 0.61000144 1.0786889e-38
0.76420653 0.12450285 0.6100015 1.0786889e-38
0.77517128 0.12526922 0.61000156 1.0786889e-38
0.78489745 0.12495787 0.61000156 1.0786889e-38
0.79475915 0.12464519 0.61000156 1.0786889e-38
0.80474609 0.12532991 0.61000162 1.0786889e-38
0.8148737 0.12501241 0.61000162 1.0786889e-38
0.8251316 0.12469408 0.6100018 1.0786889e-38
0.83412462 0.12543412 0.61048841 1.0786889e-38
0.84456527 0.12496923 0.61000186 1.0786889e-38
0.85522932 0.12464397 0.61000198 1.0786889e-38
0.86449128 0.12525433 0.61000216 1.0786889e-38
0.380851 0.13712928 0.61935467 1.0786889e-38
0.41075045 0.13954227 0.61344928 1.0694693e-38
0.57577634 0.13480128 0.61000019 1.0786889e-38
0.58506912 0.13512047 0.61000037 1.0786889e-38
0.59465319 0.13491274 0.61000043 1.0786889e-38
0.60554975 0.13513383 0.61055815 1.0694693e-38
0.61304474 0.13447152 0.61053365 1.0602497e-38
0.73880005 0.13232014 0.61000127 1.0786889e-38
0.74561375 0.13456708 0.61000133 1.0694333e-38
0.75474203 0.13548034 0.61000144 1.0786889e-38
0.76401228 0.13452829 0.6100015 1.0786889e-38
0.77517128 0.13510436 0.6100015 1.0786889e-38
0.78489786 0.13518772 0.61000156 1.0786889e-38
0.79475915 0.13461074 0.61000156 1.0786889e-38
0.80453235 0.13533872 0.61057913 1.0786889e-38
0.81495064 0.13485198 0.61000168 1.0786889e-38
0.82513165 0.1348618 0.61000186 1.0786889e-38
0.8340382 0.13551989 0.61000192 1.0786889e-38
0.84480333 0.13447171 0.61000186 1.0786889e-38
0.85522932 0.13501206 0.61000198 1.0786889e-38
0.86426926 0.13536938 0.6100021 1.0786889e-38
0.53424746 0.14656688 0.61043525 1.0786889e-38
0.57584715 0.14466639 0.61000013 1.0786889e-38
0.58493227 0.14520429 0.61000037 1.0786889e-38
0.5947234 0.1447511 0.61000043 1.0786889e-38
0.60507202 0.1452693 0.61000043 1.0786889e-38
0.61316574 0.14493221 0.61000049 1.0786889e-38
0.7473191 0.14283758 0.61000127 1.1242825e-38
0.75474209 0.14517953 0.61000144 1.0786889e-38
0.76414144 0.14476402 0.6100015 1.0786889e-38
0.77517122 0.14493956 0.6100015 1.0786889e-38
0.78507274 0.14539146 0.61000156 1.0786889e-38
0.79475927 0.1445763 0.61000156 1.0786889e-38
0.80474627 0.14539401 0.61000168 1.0786889e-38
0.81487358 0.14470683 0.61000168 1.0786889e-38
0.8251316 0.14502954 0.61000186 1.0786889e-38
0.83382463 0.14543693 0.61000192 1.0786889e-38
0.84456474 0.14453533 0.61000186 1.0786889e-38
0.85522938 0.14538011 0.61000198 1.0786889e-38
0.86473048 0.14468765 0.6100021 1.0786889e-38
0.37673289 0.1555126 0.61491591 1.0694693e-38
0.57570499 0.15471543 0.61000037 1.0786889e-38
0.5850237 0.15504846 0.61000037 1.0786889e-38
0.59457672 0.15494852 0.61000043 1.0786889e-38
0.60538161 0.15499759 0.61000043 1.0786889e-38
0.61496508 0.15509368 0.61000055 1.0786889e-38
0.62466216 0.15779245 0.61000049 1.0694693e-38
0.63290793 0.15887791 0.61000049 1.0879084e-38
0.75515503 0.15476741 0.61000144 1.1061675e-38
0.76427108 0.15500234 0.61000144 1.0786889e-38
0.77517438 0.15489896 0.61047429 1.0786889e-38
0.78489774 0.15564875 0.61000156 1.0786889e-38
0.79475915 0.15454185 0.61000162 1.0786889e-38
0.80474609 0.15542604 0.61000162 1.0786889e-38
0.81487381 0.15480627 0.61000162 1.0786889e-38
0.82513165 0.15519728 0.6100018 1.0786889e-38
0.83403844 0.15494981 0.61000198 1.0786889e-38
0.84456462 0.15483241 0.61000186 1.0786889e-38
0.85500997 0.15543255 0.61000204 1.0786889e-38
0.86449116 0.15445758 0.61000216 1.0786889e-38
0.35320351 0.1665691 0.61087435 1.0694693e-38
0.56542766 0.16515838 0.61016798 1.0694693e-38
0.57570487 0.16492432 0.61000019 1.0786889e-38
0.58511484 0.16489479 0.61000037 1.0786889e-38
0.59442967 0.16514257 0.61000043 1.0786889e-38
0.60545284 0.16491844 0.61000043 1.0786889e-38
0.61510873 0.16494483 0.61000055 1.0786889e-38
0.62491268 0.16497344 0.61000055 1.0786889e-38
0.63537687 0.16487776 0.61000055 1.0786889e-38
0.64364791 0.16575326 0.61000055 1.0786889e-38
0.65435779 0.16752793 0.61000067 1.097128e-38
0.66525322 0.16856611 0.61000073 1.097128e-38
0.7252723 0.16891566 0.61000109 1.1247867e-38
0.73531175 0.16756576 0.61000121 1.1063476e-38
0.74614125 0.16587685 0.61000133 1.0877644e-38
0.75474203 0.16457787 0.61000144 1.0786889e-38
0.76440102 0.16524336 0.61000144 1.0786889e-38
0.7751711 0.16460988 0.6100015 1.0786889e-38
0.78489763 0.16554867 0.61000156 1.0786889e-38
0.79475927 0.1645074 0.61000156 1.0786889e-38
0.80474633 0.16545807 0.61000162 1.0786889e-38
0.81510329 0.16463576 0.61000168 1.0786889e-38
0.8251316 0.165365 0.61000186 1.0786889e-38
0.83425134 0.16446689 0.61000192 1.0786889e-38
0.84456474 0.1651295 0.61000186 1.0786889e-38
0.85522968 0.16507804 0.61000204 1.0786889e-38
0.8644914 0.16488732 0.61000216 1.0786889e-38
0.38159809 0.17501248 0.61770159 1.0694693e-38
0.57570493 0.17513317 0.61000007 1.0786889e-38
0.58520567 0.17474328 0.61000037 1.0786889e-38
0.59450358 0.17515162 0.61000043 1.0786889e-38
0.60515451 0.17502981 0.61000049 1.0786889e-38
0.61525142 0.17479938 0.61000055 1.0786889e-38
0.62498748 0.17504109 0.61000055 1.0786889e-38
0.63517118 0.17513572 0.61000055 1.0786889e-38
0.6444937 0.1748168 0.61000055 1.0786889e-38
0.65460426 0.17514333 0.61026371 1.0786889e-38
0.66525322 0.17493856 0.61000067 1.0786889e-38
0.67478353 0.17508765 0.61000073 1.0786889e-38
0.6842038 0.1768727 0.61000085 1.0786889e-38
0.69424802 0.1772514 0.61000097 1.0786889e-38
0.70447725 0.17665771 0.61000103 1.0786889e-38
0.71465135 0.17565104 0.61000097 1.0879084e-38
0.72449881 0.17491551 0.61000121 1.0786889e-38
0.73487526 0.1750697 0.61000133 1.0786889e-38
0.74540472 0.1752286 0.61000133 1.0786889e-38
0.75461709 0.17459439 0.61015141 1.0786889e-38
0.76420635 0.17526618 0.61000144 1.0786889e-38
0.77497411 0.17470492 0.6100015 1.0786889e-38
0.78489774 0.1754486 0.61000156 1.0786889e-38
0.79475921 0.17447296 0.61000156 1.0786889e-38
0.80474633 0.1754901 0.61000162 1.0786889e-38
0.81487358 0.17450166 0.61000162 1.0786889e-38
0.8251316 0.17553273 0.61000174 1.0786889e-38
0.8340382 0.17438255 0.61000192 1.0786889e-38
0.8443253 0.17518544 0.61000186 1.0786889e-38
0.85544842 0.17472781 0.61000204 1.0786889e-38
0.86449116 0.17531705 0.61000216 1.0786889e-38
0.57556218 0.18517664 0.61000007 1.0786889e-38
0.58506912 0.18482493 0.61000037 1.0786889e-38
0.59465307 0.18498719 0.61000043 1.0786889e-38
0.6052295 0.18512224 0.61000049 1.0786889e-38
0.61510837 0.18511629 0.61000055 1.0786889e-38
0.62530547 0.18492605 0.61000055 1.0786889e-38
0.63500965 0.18516338 0.61000055 1.0786889e-38
0.64413536 0.18492964 0.61000055 1.0786889e-38
0.65494072 0.18494889 0.61000061 1.0786889e-38
0.66508436 0.18519169 0.61000067 1.0786889e-38
0.67462695 0.1849529 0.61000067 1.0786889e-38
0.68462127 0.18514922 0.61000079 1.0786889e-38
0.69407189 0.18493299 0.61000085 1.0786889e-38
0.70418769 0.18490906 0.61000085 1.0786889e-38
0.71427053 0.18513508 0.61000097 1.0786889e-38
0.72426456 0.18490382 0.61000127 1.0786889e-38
0.73506254 0.18534173 0.61000127 1.0786889e-38
0.7454046 0.18486562 0.61000133 1.0786889e-38
0.75474185 0.18494499 0.61000144 1.0786889e-38
0.76420635 0.18502831 0.61000144 1.0786889e-38
0.77517122 0.18477058 0.6100015 1.0786889e-38
0.78489769 0.1853485 0.61000156 1.0786889e-38
0.79455692 0.18470049 0.61000156 1.0786889e-38
0.80474633 0.18552211 0.61000162 1.0786889e-38
0.81487358 0.1846011 0.61000162 1.0786889e-38
0.82492071 0.18538678 0.61000192 1.0786889e-38
0.83403808 0.18460956 0.61000192 1.0786889e-38
0.84448522 0.18495475 0.61000186 1.0786889e-38
0.85522932 0.18477882 0.61000198 1.0786889e-38
0.86426938 0.185425 0.6100021 1.0786889e-38
0.44848633 0.19905362 0.61994714 1.1062687e-38
0.53496712 0.19181399 0.61104649 1.0786889e-38
0.55619454 0.1946582 0.61015821 1.0786889e-38
0.57563388 0.19504121 0.61000013 1.0786889e-38
0.58506912 0.19510861 0.61000037 1.0786889e-38
0.5947234 0.19482829 0.61000043 1.0786889e-38
0.60538149 0.19504033 0.61000049 1.0786889e-38
0.61490875 0.19521432 0.61000055 1.0786889e-38
0.62491274 0.19501226 0.61000055 1.0786889e-38
0.63531858 0.19493496 0.61000055 1.0786889e-38
0.64428568 0.19500226 0.61000055 1.0786889e-38
0.65446305 0.19510494 0.61023909 1.0786889e-38
0.66540742 0.19518308 0.61000067 1.0786889e-38
0.67495519 0.19501384 0.61000073 1.0786889e-38
0.68427378 0.19486588 0.61000073 1.0786889e-38
0.69424754 0.19491357 0.61000079 1.0786889e-38
0.70436704 0.19496301 0.61000091 1.0786889e-38
0.71408945 0.19481151 0.61000097 1.0786889e-38
0.7245599 0.19509313 0.61000097 1.0786889e-38
0.73487562 0.19516148 0.61000127 1.0786889e-38
0.74521554 0.19475469 0.61000133 1.0786889e-38
0.75491005 0.19527085 0.61000144 1.0786889e-38
0.76420647 0.19479051 0.6100015 1.0786889e-38
0.77510518 0.19485544 0.6100015 1.0786889e-38
0.78489769 0.19524841 0.61000156 1.0786889e-38
0.79475927 0.19490094 0.61000156 1.0786889e-38
0.80474639 0.19555418 0.61000162 1.0786889e-38
0.81487381 0.19470052 0.61000168 1.0786889e-38
0.8251316 0.19518903 0.6100018 1.0786889e-38
0.83403808 0.19483659 0.61000192 1.0786889e-38
0.84456474 0.19498904 0.61000186 1.0786889e-38
0.85522938 0.19514689 0.61000198 1.0786889e-38
0.86449158 0.19513206 0.6100021 1.0786889e-38
0.41444841 0.20238367 0.61181509 1.0694693e-38
0.44422281 0.20485298 0.61719769 6.5458687e-39
0.57570511 0.20490739 0.61000013 1.0786889e-38
0.58493227 0.20518604 0.61000037 1.0786889e-38
0.59464681 0.20492758 0.61019599 1.0786889e-38
0.6054529 0.20496336 0.61000049 1.0786889e-38
0.61530799 0.20483516 0.61000049 1.0786889e-38
0.6249876 0.20508161 0.61000055 1.0786889e-38
0.63496542 0.20497316 0.61000055 1.0786889e-38
0.64443463 0.20507841 0.61000055 1.0786889e-38
0.65495026 0.20500602 0.61000061 1.0786889e-38
0.66508448 0.20521688 0.61000073 1.0786889e-38
0.67456537 0.20489201 0.61000067 1.0786889e-38
0.68460578 0.20499983 0.61000079 1.0786889e-38
0.69442445 0.20489767 0.61000079 1.0786889e-38
0.70400953 0.20481546 0.61000091 1.0786889e-38
0.71427017 0.2049364 0.61000091 1.0786889e-38
0.72468293 0.20506021 0.61000127 1.0786889e-38
0.73468924 0.2049773 0.61000127 1.0786889e-38
0.7453413 0.20486446 0.61000133 1.0786889e-38
0.75474209 0.2053144 0.61000144 1.0786889e-38
0.7640124 0.20480667 0.6100015 1.0786889e-38
0.77517116 0.20493218 0.6100015 1.0786889e-38
0.78489774 0.20514831 0.61000156 1.0786889e-38
0.79475915 0.20486648 0.61000156 1.0786889e-38
0.80474621 0.20558618 0.61000162 1.0786889e-38
0.8148737 0.20480001 0.61000162 1.0786889e-38
0.82513189 0.20501778 0.61000174 1.0786889e-38
0.83403802 0.20506358 0.61000192 1.0786889e-38
0.84464467 0.20502479 0.61000186 1.0786889e-38
0.85500997 0.20519233 0.61000204 1.0786889e-38
0.86471283 0.20484349 0.6100021 1.0786889e-38
0.4385086 0.21127951 0.6185537 4.7023246e-39
0.57570487 0.21494617 0.61000007 1.0786889e-38
0.58502376 0.21503447 0.61000037 1.0786889e-38
0.59434873 0.21503659 0.61000043 1.0786889e-38
0.60515451 0.21506563 0.61000049 1.0786889e-38
0.61510843 0.21493326 0.61000055 1.0786889e-38
0.62530529 0.21497379 0.61000055 1.0786889e-38
0.63537687 0.2147436 0.61000055 1.0786889e-38
0.64407665 0.2151823 0.61000055 1.0786889e-38
0.65444136 0.21495099 0.61000061 1.0786889e-38
0.66525286 0.21499276 0.61000067 1.0786889e-38
0.67500168 0.21495184 0.61000067 1.0786889e-38
0.68427384 0.21517208 0.61000079 1.0786889e-38
0.69402367 0.21491264 0.61000085 1.0786889e-38
0.70418763 0.21486954 0.61000085 1.0786889e-38
0.71445209 0.215065 0.61000091 1.0786889e-38
0.72431511 0.21505234 0.61000097 1.0786889e-38
0.73481321 0.21501441 0.61000127 1.0786889e-38
0.74546748 0.21497674 0.61000133 1.0786889e-38
0.75474209 0.21501358 0.61000144 1.0786889e-38
0.76414144 0.21504857 0.6100015 1.0786889e-38
0.77523685 0.21501037 0.6100015 1.0786889e-38
0.78489774 0.21504821 0.61000156 1.0786889e-38
0.79475915 0.21483204 0.61000156 1.0786889e-38
0.80454099 0.21530469 0.61000162 1.0786889e-38
0.8148737 0.21489942 0.61000168 1.0786889e-38
0.82513154 0.21484664 0.61000186 1.0786889e-38
0.83403808 0.21529062 0.61000186 1.0786889e-38
0.84480327 0.21480136 0.61000186 1.0786889e-38
0.85522968 0.21484481 0.61000204 1.0786889e-38
0.8644914 0.21495001 0.61000216 1.0786889e-38
0.39713645 0.22954349 0.61916995 1.0694693e-38
0.42965907 0.22629784 0.61835134 8.3894184e-39
0.5757764 0.22498478 0.61000037 1.0694693e-38
0.58511496 0.22488503 0.61000037 1.0694693e-38
0.59457707 0.22487427 0.61000043 1.0694693e-38
0.60522711 0.22498623 0.61000049 1.0694693e-38
0.61490881 0.22502671 0.61000055 1.0694693e-38
0.62507033 0.22518805 0.61027557 1.0694693e-38
0.6348334 0.22492662 0.61106139 1.0510302e-38
0.6440208 0.22309461 0.61000055 1.0694693e-38
0.65541893 0.22298256 0.61000067 1.0787249e-38
0.6654622 0.2238598 0.61000067 1.0602858e-38
0.67478353 0.22458902 0.61000067 1.0786889e-38
0.68444687 0.22508636 0.61000073 1.0786889e-38
0.69447225 0.22511791 0.61000085 1.0786889e-38
0.70436704 0.22492729 0.61000091 1.0786889e-38
0.71399903 0.22506236 0.61013293 1.0786889e-38
0.72443718 0.22501782 0.61000115 1.0786889e-38
0.73493767 0.22505406 0.61000127 1.0786889e-38
0.74559432 0.22509164 0.61000133 1.0786889e-38
0.75474203 0.22471276 0.61000144 1.0786889e-38
0.76417732 0.22482355 0.61004418 1.0786529e-38
0.77517116 0.22509472 0.6100015 1.0786889e-38
0.78489763 0.22494812 0.61000156 1.0786889e-38
0.79475915 0.22479761 0.61000162 1.0786889e-38
0.80474639 0.22498018 0.61000162 1.0786889e-38
0.81487381 0.22499888 0.61000168 1.0786889e-38
0.8253423 0.22465567 0.61000192 1.0786889e-38
0.83382469 0.22519659 0.61000198 1.0786889e-38
0.84456474 0.22485261 0.61000186 1.0786889e-38
0.85522938 0.22486734 0.61000198 1.0786889e-38
0.86449116 0.22537974 0.61000216 1.0786889e-38
0.36928844 0.23334564 0.61714506 1.0694693e-38
0.41907209 0.23332348 0.61181682 7.6521994e-39
0.57570487 0.23502417 0.61000007 1.0694693e-38
0.58506912 0.2349568 0.61000037 1.0694693e-38
0.59460855 0.23492812 0.61029679 1.0694693e-38
0.60537869 0.23490897 0.61000043 1.0694693e-38
0.61515623 0.23488118 0.61000049 1.0694693e-38
0.62459928 0.23517503 0.61151886 9.9571266e-39
0.63268238 0.23225835 0.61000049 9.9571266e-39
0.67679769 0.2318082 0.61191958 9.9574924e-39
0.68531621 0.23366058 0.61000091 1.0326631e-38
0.69407189 0.2351277 0.61000085 1.0694693e-38
0.70396054 0.23500776 0.61000085 1.0694693e-38
0.71420985 0.23487781 0.61000091 1.0694693e-38
0.7245599 0.23498586 0.61000127 1.0694693e-38
0.73506254 0.23509625 0.61000127 1.0694693e-38
0.7454046 0.23497812 0.61000133 1.0786889e-38
0.75457436 0.23475049 0.61000144 1.0786889e-38
0.76427096 0.2350557 0.6100015 1.0786889e-38
0.77536875 0.2351698 0.6100015 1.0786889e-38
0.7848978 0.23484802 0.61000156 1.0786889e-38
0.79475915 0.23476312 0.61000156 1.0786889e-38
0.80474609 0.23501222 0.61000162 1.0786889e-38
0.8148737 0.23509832 0.61000162 1.0786889e-38
0.82513165 0.23450556 0.61000174 1.0786889e-38
0.83403802 0.23506151 0.61000192 1.0786889e-38
0.84456456 0.23514971 0.61000186 1.0786889e-38
0.85544837 0.23487113 0.61000204 1.0786889e-38
0.86426944 0.23548059 0.6100021 1.0786889e-38
0.43015695 0.24036629 0.61113292 1.0694693e-38
0.5562011 0.24485058 0.6101225 1.1339687e-38
0.57584727 0.24506488 0.61000019 1.0694693e-38
0.58520579 0.24502251 0.61000037 1.0694693e-38
0.59472334 0.24490544 0.61000043 1.0694693e-38
0.60545284 0.2450083 0.61000049 1.0694693e-38
0.6155256 0.24519882 0.61209452 9.5887042e-39
0.62228137 0.24287482 0.61000043 9.6809013e-39
0.6957891 0.24233773 0.61000097 9.9585686e-39
0.70443785 0.24487002 0.61000091 1.0418468e-38
0.71450132 0.24500678 0.61000085 1.0694693e-38
0.72468293 0.24495636 0.61000115 1.0694693e-38
0.73487568 0.24490955 0.61000133 1.0694693e-38
0.74521548 0.24486065 0.61000133 1.0694693e-38
0.75474185 0.24507987 0.61000144 1.0694693e-38
0.76420635 0.24506435 0.61000144 1.0694693e-38
0.77517134 0.24525818 0.6100015 1.0694693e-38
0.78489345 0.24455334 0.61044759 1.0694693e-38
0.79469144 0.24497943 0.61000162 1.0694693e-38
0.80474627 0.24504425 0.61000162 1.0694693e-38
0.81487381 0.24519777 0.61000168 1.0694693e-38
0.8251316 0.24467328 0.6100018 1.0694693e-38
0.83403838 0.24494757 0.61000198 1.0694693e-38
0.84432542 0.24519481 0.61000186 1.0694693e-38
0.85522938 0.24491365 0.61000198 1.0786889e-38
0.86449158 0.24519481 0.6100021 1.0786889e-38
0.38034317 0.25191537 0.61120754 1.0694693e-38
0.57556224 0.25492948 0.61000013 1.0694693e-38
0.58500606 0.25506744 0.6102078 1.0694692e-38
0.59442973 0.2549158 0.61000043 1.0694693e-38
0.6054377 0.2551299 0.61118609 9.9578469e-39
0.61257637 0.25284004 0.6118356 9.404313e-39
0.70794654 0.25105929 0.61000103 1.0694693e-38
0.71479291 0.2544477 0.61000109 1.0694693e-38
0.72431505 0.25493819 0.61000127 1.0694693e-38
0.73486114 0.25489196 0.61022002 1.0694693e-38
0.74534124 0.25497478 0.61000133 1.0694693e-38
0.75474209 0.25510231 0.61000144 1.0694693e-38
0.76440102 0.25506723 0.61000144 1.0694693e-38
0.77517116 0.2550934 0.6100015 1.0694693e-38
0.78489774 0.25464785 0.61000156 1.0694693e-38
0.79475927 0.25519207 0.61000156 1.0694693e-38
0.80474609 0.25507629 0.61000162 1.0694693e-38
0.81464356 0.25504857 0.61000168 1.0694693e-38
0.8251316 0.25484103 0.61000186 1.0694693e-38
0.83434445 0.25496078 0.61020821 1.0694693e-38
0.84448534 0.2549713 0.61000186 1.0694693e-38
0.85522932 0.25528175 0.61000198 1.0694693e-38
0.86471313 0.2549133 0.6100021 1.0694693e-38
0.57570487 0.26497021 0.61000019 1.0694693e-38
0.58493227 0.26516777 0.61000025 1.0694693e-38
0.59488559 0.26523232 0.61064726 1.0142238e-38
0.60334736 0.26358852 0.61183959 9.1288051e-39
0.71666878 0.26559326 0.61000109 1.0972e-38
0.72443718 0.26490709 0.61000109 1.0694693e-38
0.73504138 0.26498312 0.61045539 1.0694693e-38
0.74546766 0.26509145 0.61000133 1.0694693e-38
0.75491005 0.26511297 0.61000144 1.0694693e-38
0.76420653 0.26507822 0.61000144 1.0694693e-38
0.77517122 0.26492852 0.6100015 1.0694693e-38
0.78489763 0.26454777 0.61000156 1.0694693e-38
0.79475915 0.26515761 0.61000156 1.0694693e-38
0.80474627 0.26510832 0.61000162 1.0694693e-38
0.81487358 0.26489025 0.61000162 1.0694693e-38
0.8251316 0.26500875 0.6100018 1.0694693e-38
0.83425134 0.26470557 0.61000198 1.0694693e-38
0.84456462 0.26500922 0.61000186 1.0694693e-38
0.85501003 0.26531869 0.61000204 1.0694693e-38
0.86449116 0.26501271 0.61000216 1.0694693e-38
0.40323678 0.27210826 0.61746567 1.0694693e-38
0.57563382 0.27500626 0.61000019 1.0694693e-38
0.58502376 0.27502048 0.61000025 1.0694693e-38
0.59398431 0.27456391 0.61198717 9.0376871e-39
0.60098475 0.27099189 0.61000031 9.49651e-39
0.70710927 0.27813026 0.61000103 1.0602865e-38
0.71452397 0.27513844 0.61000091 1.0602499e-38
0.7245599 0.2748785 0.61000109 1.0694693e-38
0.73493767 0.27480426 0.61000127 1.0694693e-38
0.74540472 0.27497044 0.61000133 1.0694693e-38
0.75474197 0.27514845 0.61000144 1.0694693e-38
0.76401228 0.27508503 0.6100015 1.0694693e-38
0.77497429 0.27501023 0.6100015 1.0694693e-38
0.78472292 0.27478853 0.61000156 1.0694693e-38
0.79475915 0.27512318 0.61000156 1.0694693e-38
0.80474639 0.27514032 0.61000162 1.0694693e-38
0.8148737 0.27498969 0.61000168 1.0694693e-38
0.8251316 0.2751765 0.6100018 1.0694693e-38
0.83403814 0.27460727 0.61000186 1.0694693e-38
0.84464467 0.27504855 0.61000186 1.0694693e-38
0.85522956 0.27497965 0.61000204 1.0694693e-38
0.86426926 0.27510795 0.6100021 1.0694693e-38
0.57570493 0.28504714 0.61000025 1.0694693e-38
0.58539349 0.28510305 0.61216772 8.8536559e-39
0.59142715 0.28239152 0.61065215 1.014224e-38
0.70528299 0.28587782 0.61000097 1.0971281e-38
0.71445227 0.28485426 0.61000097 1.0694693e-38
0.72468299 0.2848525 0.61000097 1.0694693e-38
0.73506254 0.28485075 0.61000127 1.0694693e-38
0.74559432 0.28484896 0.61000133 1.0694693e-38
0.75474209 0.28484765 0.61000144 1.0694693e-38
0.76420641 0.28508919 0.6100015 1.0694693e-38
0.77517128 0.28508919 0.6100015 1.0694693e-38
0.78489786 0.28500625 0.61000156 1.0694693e-38
0.79475915 0.28508872 0.61000162 1.0694693e-38
0.80474639 0.28517237 0.61000162 1.0694693e-38
0.8148737 0.28508914 0.61000162 1.0694693e-38
0.82513165 0.28534415 0.61000186 1.0694693e-38
0.83403808 0.28483433 0.61000186 1.0694693e-38
0.84456462 0.28508902 0.61000186 1.0694693e-38
0.85544854 0.2846449 0.61000204 1.0694693e-38
0.86449158 0.28482777 0.6100021 1.0694693e-38
0.36328843 0.29261619 0.61950052 7.467846e-39
0.50191098 0.29488117 0.61997676 1.069469e-38
0.55548352 0.29470718 0.61000001 1.0694693e-38
0.5758701 0.29516727 0.6108315 9.8663701e-39
0.58293909 0.29367113 0.6114558 9.1298841e-39
0.70412827 0.29515365 0.61000091 1.0695053e-38
0.7142185 0.29483169 0.6102854 1.0694693e-38
0.72431499 0.294824 0.61000109 1.0694693e-38
0.73468924 0.29489481 0.61000127 1.0694693e-38
0.74521548 0.29496661 0.61000133 1.0694693e-38
0.75457424 0.29487848 0.61000144 1.0694693e-38
0.76414144 0.29509485 0.61000144 1.0694693e-38
0.7751714 0.29492441 0.6100015 1.0694693e-38
0.78488356 0.29473129 0.6100052 1.0694693e-38
0.79475915 0.2950542 0.61000156 1.0694693e-38
0.80474609 0.29520437 0.61000162 1.0694693e-38
0.81479728 0.29493532 0.61000168 1.0694693e-38
0.82492065 0.29518303 0.61000192 1.0694693e-38
0.83403814 0.29506129 0.61000186 1.0694693e-38
0.84480333 0.29513103 0.61000186 1.0694693e-38
0.85522932 0.29468045 0.61000198 1.0694693e-38
0.8644914 0.29490989 0.61000216 1.0694693e-38
0.38446406 0.30226561 0.61538696 1.0694693e-38
0.55636603 0.30519894 0.61000007 1.0694693e-38
0.56568724 0.30506676 0.61056143 1.0234432e-38
0.57465422 0.30439794 0.61067438 9.9582056e-39
0.68810105 0.30892274 0.61000091 1.244713e-38
0.6951524 0.30584756 0.61000085 1.097164e-38
0.70424742 0.3049857 0.61000091 1.0694693e-38
0.71433079 0.30512831 0.61000097 1.0694693e-38
0.72443724 0.3047964 0.61000127 1.0694693e-38
0.73481321 0.30493969 0.61000127 1.0694693e-38
0.74534124 0.30508503 0.61000133 1.0694693e-38
0.75474203 0.30489141 0.61000144 1.0694693e-38
0.76420659 0.30510128 0.61000144 1.0694693e-38
0.77510524 0.30500436 0.6100015 1.0694693e-38
0.78489774 0.30480614 0.61000156 1.0694693e-38
0.79465473 0.30482554 0.610138 1.0694693e-38
0.80474621 0.30523643 0.61000162 1.0694693e-38
0.8149544 0.30477631 0.61025381 1.0694693e-38
0.82513165 0.30500045 0.61000174 1.0694693e-38
0.83403808 0.30528831 0.61000186 1.0694693e-38
0.84432542 0.30490866 0.61000186 1.0694693e-38
0.85522932 0.3050485 0.61000198 1.0694693e-38
0.86471301 0.30498308 0.6100021 1.0694693e-38
0.55636597 0.31525332 0.61000007 1.0694693e-38
0.56556308 0.31469452 0.61101389 9.7741745e-39
0.57209307 0.31255442 0.61000001 9.6819789e-39
0.67838633 0.31886625 0.61000085 7.0101469e-39
0.68520707 0.31605819 0.61000091 1.0510303e-38
0.69434458 0.31503552 0.61029494 1.0694693e-38
0.70418853 0.31504986 0.61000085 1.0694693e-38
0.71445215 0.31503338 0.61000097 1.0694693e-38
0.72455978 0.31477123 0.61000115 1.0694693e-38
0.73493767 0.31498709 0.61000127 1.0694693e-38
0.7454046 0.31496364 0.61000133 1.0694693e-38
0.75474173 0.31491387 0.61000144 1.0694693e-38
0.76420647 0.31486344 0.61000144 1.0694693e-38
0.77517122 0.31508601 0.6100015 1.0694693e-38
0.78489751 0.31503609 0.61000156 1.0694693e-38
0.79475915 0.31498536 0.61000156 1.0694693e-38
0.80474633 0.31526843 0.61000162 1.0694693e-38
0.8148737 0.31488198 0.61000162 1.0694693e-38
0.8251316 0.31516823 0.61000186 1.0694693e-38
0.83382469 0.31518179 0.61000186 1.0694693e-38
0.84456462 0.31495059 0.61000186 1.0694693e-38
0.85500997 0.31507847 0.61000204 1.0694693e-38
0.86449116 0.3150754 0.61000216 1.0694693e-38
0.55636591 0.32530773 0.61000007 1.0694693e-38
0.57157898 0.32642961 0.61000001 9.3124859e-39
0.67649651 0.32580119 0.61000073 1.0418109e-38
0.68450505 0.32501608 0.61000079 1.0694693e-38
0.69424748 0.32506436 0.61000085 1.0694693e-38
0.70412827 0.32511288 0.61000091 1.0694693e-38
0.71424884 0.32504824 0.610129 1.0694693e-38
0.72449917 0.32498035 0.61000103 1.0694693e-38
0.73506254 0.32503709 0.61000127 1.0694693e-38
0.74546766 0.32484353 0.61000133 1.0694693e-38
0.75474209 0.32493636 0.61000144 1.0694693e-38
0.76427096 0.3248716 0.61000144 1.0694693e-38
0.77503711 0.3249414 0.61040837 1.0694693e-38
0.78489774 0.32526594 0.61000156 1.0694693e-38
0.79475915 0.3249509 0.61000162 1.0694693e-38
0.80474633 0.32530051 0.61000162 1.0694693e-38
0.81487381 0.32498145 0.61000168 1.0694693e-38
0.82513195 0.32499698 0.61000192 1.0694693e-38
0.83403814 0.32505924 0.61000186 1.0694693e-38
0.84448534 0.32498792 0.61000186 1.0694693e-38
0.85522938 0.32509211 0.61000198 1.0694693e-38
0.86426926 0.32516354 0.6100021 1.0694693e-38
0.55636597 0.33536211 0.61000007 1.0694693e-38
0.58268517 0.33729458 0.61090356 7.6540646e-39
0.66690874 0.33699551 0.61000067 1.0695056e-38
0.67456549 0.3350417 0.61000067 1.0695053e-38
0.68444771 0.3349382 0.61000079 1.0694693e-38
0.69442439 0.33506501 0.61000085 1.0694693e-38
0.70424747 0.33494744 0.61000091 1.0694693e-38
0.71420997 0.33482912 0.61000097 1.0694693e-38
0.7244373 0.33518818 0.61000121 1.0694693e-38
0.73468924 0.3350707 0.61000127 1.0694693e-38
0.74559432 0.33496803 0.61000133 1.0694693e-38
0.75490999 0.33495504 0.61000144 1.0694693e-38
0.76420647 0.33487633 0.61000144 1.0694693e-38
0.77523667 0.33500469 0.6100015 1.0694693e-38
0.78489774 0.33516586 0.61000156 1.0694693e-38
0.79475915 0.3349165 0.61000156 1.0694693e-38
0.80474663 0.33499804 0.61000162 1.0694693e-38
0.81487381 0.33508086 0.61000168 1.0694693e-38
0.8251316 0.33482581 0.6100018 1.0694693e-38
0.83403856 0.33494529 0.61000186 1.0694693e-38
0.84456462 0.33502942 0.61000186 1.0694693e-38
0.85522974 0.33511451 0.61000204 1.0694693e-38
0.86449158 0.33489051 0.6100021 1.0694693e-38
0.34565124 0.34489703 0.61472523 1.0694693e-38
0.4425835 0.34034765 0.61590648 1.0694693e-38
0.55636597 0.34541652 0.61000007 1.0694693e-38
0.57577854 0.3449333 0.61000013 1.0694693e-38
0.58471948 0.34564367 0.61000025 1.0602497e-38
0.59218425 0.34794217 0.61000019 1.0141881e-38
0.65885341 0.34659812 0.61226213 1.1617009e-38
0.66525364 0.34517249 0.61000067 1.0694693e-38
0.67484045 0.34490591 0.61000073 1.0694693e-38
0.68444687 0.34509259 0.61000079 1.0694693e-38
0.69402361 0.34504259 0.61000085 1.0694693e-38
0.70418847 0.3450104 0.61000085 1.0694693e-38
0.71433079 0.34473503 0.61000097 1.0694693e-38
0.72455978 0.34516567 0.61000115 1.0694693e-38
0.73481321 0.345119 0.61000127 1.0694693e-38
0.74521548 0.34507254 0.61000133 1.0694693e-38
0.75474209 0.34498253 0.61000144 1.0694693e-38
0.76440102 0.34489113 0.6100015 1.0694693e-38
0.77517128 0.34508371 0.6100015 1.0694693e-38
0.78489769 0.34506571 0.61000156 1.0694693e-38
0.79475915 0.34488201 0.61000156 1.0694693e-38
0.80474621 0.34469572 0.61000162 1.0694693e-38
0.8148737 0.34518033 0.61000162 1.0694693e-38
0.8251316 0.34499356 0.6100018 1.0694693e-38
0.83436739 0.34477249 0.61036682 1.0694693e-38
0.84464467 0.34507236 0.61000186 1.0694693e-38
0.85544842 0.34478822 0.61000204 1.0694693e-38
0.86449128 0.34497258 0.61000216 1.0694693e-38
0.55636591 0.3554709 0.61000007 1.0694693e-38
0.57571191 0.35497293 0.6102432 1.0694693e-38
0.58499783 0.35527697 0.61016864 1.0326269e-38
0.59449762 0.35505307 0.61000037 1.0694693e-38
0.60429507 0.35709465 0.61000025 1.0233718e-38
0.64773017 0.35900652 0.61000055 1.0694693e-38
0.65543187 0.35558432 0.61000061 1.078689e-38
0.66519672 0.3549557 0.61000067 1.0694693e-38
0.67473161 0.35498446 0.61000067 1.0694693e-38
0.68444771 0.35524699 0.61000079 1.0694693e-38
0.69430649 0.3550483 0.61000085 1.0694693e-38
0.70412832 0.35507211 0.61000091 1.0694693e-38
0.71427107 0.35486966 0.61000091 1.0694693e-38
0.72449887 0.35489863 0.61000109 1.0694693e-38
0.73487568 0.35492748 0.61000127 1.0694693e-38
0.7453413 0.35519528 0.61000133 1.0694693e-38
0.75457418 0.35500643 0.61000144 1.0694693e-38
0.76401228 0.35512424 0.61000144 1.0694693e-38
0.77517128 0.35491887 0.6100015 1.0694693e-38
0.78489769 0.35496563 0.61000156 1.0694693e-38
0.79475915 0.35484761 0.61000162 1.0694693e-38
0.80474639 0.35472775 0.61000162 1.0694693e-38
0.8149507 0.35503107 0.61000168 1.0694693e-38
0.82513165 0.35516128 0.6100018 1.0694693e-38
0.83403838 0.35505849 0.61000186 1.0694693e-38
0.84456462 0.35510927 0.61000186 1.0694693e-38
0.85522938 0.3548153 0.61000198 1.0694693e-38
0.86471301 0.3550528 0.6100021 1.0694693e-38
0.32895556 0.36319306 0.61957437 3.6878252e-40
0.35108757 0.3652738 0.61118889 1.0694693e-38
0.55636591 0.36552534 0.61000007 1.0694693e-38
0.56552297 0.36515623 0.61009979 1.0694693e-38
0.57570499 0.36501667 0.61000001 1.0694693e-38
0.58506924 0.3652167 0.61000031 1.0694693e-38
0.59457678 0.36490187 0.61000043 1.0694693e-38
0.60515457 0.36512366 0.61000043 1.0694693e-38
0.61449856 0.36600271 0.61000037 1.0510303e-38
0.62417513 0.36831325 0.61000049 1.0694693e-38
0.63585073 0.36886603 0.61000049 1.0694693e-38
0.64474404 0.36561149 0.61000055 1.0695053e-38
0.65477419 0.36489242 0.61000061 1.0694693e-38
0.66530478 0.36497536 0.61000067 1.0694693e-38
0.67484045 0.36507401 0.61000073 1.0694693e-38
0.68438923 0.36516702 0.61000073 1.0694693e-38
0.69424832 0.36503926 0.61000085 1.0694693e-38
0.70424742 0.36490926 0.61000091 1.0694693e-38
0.71420991 0.36500308 0.61000097 1.0694693e-38
0.72449923 0.36487132 0.61000115 1.0694693e-38
0.73477495 0.36474046 0.61009568 1.0694693e-38
0.74540466 0.36507609 0.61000133 1.0694693e-38
0.75474203 0.3650263 0.61000144 1.0694693e-38
0.76420635 0.36513916 0.61000144 1.0694693e-38
0.77517116 0.36475402 0.6100015 1.0694693e-38
0.78489769 0.36486557 0.61000156 1.0694693e-38
0.79475921 0.36481309 0.61000156 1.0694693e-38
0.80474621 0.36475983 0.61000162 1.0694693e-38
0.81487387 0.36487469 0.61000168 1.0694693e-38
0.82534236 0.36498967 0.61000174 1.0694693e-38
0.83425128 0.36494422 0.61000186 1.0694693e-38
0.84456396 0.3648915 0.61000186 1.0694693e-38
0.85500997 0.36483818 0.61000198 1.0694693e-38
0.8644914 0.36513811 0.6100021 1.0694693e-38
0.42777321 0.37855244 0.61405873 1.0694693e-38
0.55616552 0.3748526 0.61000007 1.0694693e-38
0.57570517 0.37505543 0.61000013 1.0694693e-38
0.58506888 0.37507197 0.61000025 1.0694693e-38
0.59457701 0.37508881 0.61000043 1.0694693e-38
0.60538113 0.37504548 0.61000043 1.0694693e-38
0.61515623 0.37520126 0.61000043 1.0694693e-38
0.62514627 0.3750796 0.61000055 1.0694693e-38
0.6350072 0.3752425 0.61006039 1.0694693e-38
0.64428478 0.37517691 0.61000055 1.0694693e-38
0.65460515 0.37483808 0.61000061 1.0694693e-38
0.66519678 0.37498257 0.61000067 1.0694693e-38
0.67478395 0.37492532 0.61000067 1.0694693e-38
0.68450499 0.37486693 0.61000079 1.0694693e-38
0.69418913 0.375029 0.61000091 1.0694693e-38
0.70418853 0.37497091 0.61000085 1.0694693e-38
0.71433079 0.37491158 0.61000091 1.0694693e-38
0.72443724 0.37507749 0.61000115 1.0694693e-38
0.7348761 0.37501851 0.61000133 1.0694693e-38
0.74546754 0.37495822 0.61000133 1.0694693e-38
0.75474173 0.37504882 0.61000144 1.0694693e-38
0.76414138 0.37514108 0.6100015 1.0694693e-38
0.77497417 0.37484583 0.6100015 1.0694693e-38
0.78489774 0.37476546 0.61000156 1.0694693e-38
0.79475915 0.37477872 0.61000162 1.0694693e-38
0.80474639 0.3747918 0.61000162 1.0694693e-38
0.81487381 0.37497419 0.61000168 1.0694693e-38
0.82513165 0.37482023 0.6100018 1.0694693e-38
0.83403814 0.37483203 0.61000186 1.0694693e-38
0.84456474 0.37467375 0.61000186 1.0694693e-38
0.85522938 0.37485886 0.61000198 1.0694693e-38
0.86426944 0.37521917 0.61000204 1.0694693e-38
0.39295959 0.38138685 0.61477941 1.0694693e-38
0.55536383 0.38534462 0.61000007 1.0694693e-38
0.57570493 0.38509414 0.61000007 1.0694693e-38
0.58506912 0.38492712 0.61000037 1.0694693e-38
0.59450066 0.38493362 0.61000043 1.0694693e-38
0.60530418 0.3849729 0.61000043 1.0694693e-38
0.61510807 0.38506413 0.61000043 1.0694693e-38
0.62506711 0.38515699 0.61000055 1.0694693e-38
0.63511699 0.38502425 0.61000055 1.0694693e-38
0.6442855 0.38503712 0.61000055 1.0694693e-38
0.65477413 0.38476667 0.61000061 1.0694693e-38
0.66530478 0.38500383 0.61000067 1.0694693e-38
0.67478311 0.38500893 0.61000067 1.0694693e-38
0.68444771 0.38478696 0.61000067 1.0694693e-38
0.69430649 0.38479829 0.61000085 1.0694693e-38
0.70418239 0.38485241 0.61002874 1.0694693e-38
0.71427101 0.38504502 0.61000097 1.0694693e-38
0.72455978 0.38505834 0.61000115 1.0694693e-38
0.73481321 0.38529837 0.61000127 1.0694693e-38
0.7454046 0.3848325 0.61000133 1.0694693e-38
0.75474203 0.38507125 0.61000144 1.0694693e-38
0.76420629 0.38515109 0.61000144 1.0694693e-38
0.77536875 0.38515127 0.6100015 1.0694693e-38
0.78507274 0.38499743 0.61000156 1.0694693e-38
0.79475921 0.38474423 0.61000156 1.0694693e-38
0.80474627 0.38482392 0.61000162 1.0694693e-38
0.81487358 0.3850736 0.61000168 1.0694693e-38
0.82513165 0.38498795 0.61000174 1.0694693e-38
0.83403808 0.38505906 0.61000192 1.0694693e-38
0.84456474 0.38497078 0.61000186 1.0694693e-38
0.85522968 0.38488129 0.61000204 1.0694693e-38
0.86449176 0.38495317 0.61000204 1.0694693e-38
0.48842573 0.39843887 0.61406797 1.0602497e-38
0.57556218 0.39513767 0.61000001 1.0694693e-38
0.5850237 0.3949925 0.61000025 1.0694693e-38
0.59457678 0.39494422 0.61000043 1.0694693e-38
0.60522652 0.39489847 0.61000043 1.0694693e-38
0.61506081 0.39492586 0.61000049 1.0694693e-38
0.62498695 0.39523253 0.61000055 1.0694693e-38
0.63522053 0.39482591 0.61000055 1.0694693e-38
0.64428478 0.39489746 0.61000055 1.0694693e-38
0.65469146 0.39506841 0.61000061 1.0694693e-38
0.6651966 0.3950094 0.61000067 1.0694693e-38
0.67478395 0.39509258 0.61000067 1.0694693e-38
0.68444687 0.39494133 0.61000079 1.0694693e-38
0.69424826 0.394788 0.61000085 1.0694693e-38
0.70424747 0.394871 0.61000091 1.0694693e-38
0.71420985 0.39517704 0.61000097 1.0694693e-38
0.72431505 0.39503485 0.61000103 1.0694693e-38
0.73487568 0.39510864 0.61000127 1.0694693e-38
0.74540514 0.39495134 0.61000133 1.0694693e-38
0.75490993 0.39509684 0.61000144 1.0694693e-38
0.76420641 0.39491326 0.6100015 1.0694693e-38
0.77517122 0.39524299 0.6100015 1.0694693e-38
0.78489769 0.39522651 0.61000156 1.0694693e-38
0.79475921 0.39470977 0.61000156 1.0694693e-38
0.80474609 0.39485589 0.61000162 1.0694693e-38
0.81487381 0.39517307 0.61000162 1.0694693e-38
0.82513165 0.3951557 0.6100018 1.0694693e-38
0.83382469 0.39494148 0.61000192 1.0694693e-38
0.84448522 0.39500448 0.61000186 1.0694693e-38
0.85522938 0.39490381 0.61000198 1.0694693e-38
0.8644914 0.39503527 0.6100021 1.0694693e-38
0.42637405 -0.3441706 0.62143576 7.546365e-39
0.45814127 -0.18613142 0.62041956 1.0879084e-38
0.54962021 -0.15901554 0.62099963 1.3840667e-39
0.42847934 -0.037961993 0.62005025 6.6409804e-39
0.63175666 0.015960587 0.62019122 1.0879083e-38
0.61052209 0.1304597 0.62006056 9.313883e-39
0.50191808 0.18875942 0.62009591 1.0786889e-38
