# .PCD v0.7 - Point Cloud Data file format
VERSION 0.7
FIELDS x y z rgb
SIZE 4 4 4 4
TYPE F F F F
COUNT 1 1 1 1
WIDTH 1004
HEIGHT 1
VIEWPOINT 0 0 0 1 0 0 0
POINTS 1004
DATA ascii
0.59920973 -0.25114062 0.68441027 1.1247505e-38
0.60315573 -0.25605252 0.68479043 1.1616649e-38
0.59444612 -0.24505799 0.68504286 1.0047157e-38
0.58675539 -0.23501883 0.68500239 8.939365e-39
0.57774991 -0.22314157 0.68470734 8.8468092e-39
0.58179337 -0.22834612 0.68555152 9.3085104e-39
0.56815547 -0.21166305 0.68400133 1.0047157e-38
0.57270634 -0.21657856 0.68530881 9.8627646e-39
0.5588786 -0.20148119 0.68523282 1.1616651e-38
0.56337762 -0.20636019 0.6849764 1.1247505e-38
0.54966331 -0.1911311 0.68256778 2.8599577e-39
0.55332208 -0.195365 0.68532902 7.0998328e-39
0.5461821 -0.18506381 0.68617445 2.8599577e-39
0.53901404 -0.1728868 0.68667722 2.9521561e-39
0.54134852 -0.17677471 0.6879999 2.8599605e-39
0.53807962 -0.16526121 0.68555593 2.8599577e-39
0.54090559 -0.16055623 0.6853835 2.8599577e-39
0.54526919 -0.15755925 0.68606067 2.8599577e-39
0.55500776 -0.15250994 0.68436188 2.8599577e-39
0.55965221 -0.149691 0.68877614 2.8599577e-39
0.56554419 -0.1486403 0.68511957 2.8599577e-39
0.57391781 -0.14701025 0.68478125 4.5191007e-39
0.44589564 -0.071396522 0.68401015 6.5484233e-39
0.4535394 -0.074478932 0.6809743 7.3807175e-39
0.437563 -0.06369929 0.68479693 7.0068679e-39
0.44144621 -0.068380311 0.68562806 6.6380868e-39
0.70673901 -0.063258708 0.68633425 8.6516223e-39
0.71188992 -0.067979753 0.68427265 9.7673348e-39
0.43417102 -0.055226266 0.68519723 7.3774595e-39
0.69846773 -0.053297292 0.68516606 9.1032384e-39
0.70238203 -0.058058135 0.68570572 7.820061e-39
0.43746853 -0.046449635 0.6848827 6.6424322e-39
0.44143322 -0.041338805 0.68538135 7.2874372e-39
0.68926978 -0.040490344 0.68448436 9.3769442e-39
0.69307846 -0.0459399 0.68511546 9.4709391e-39
0.44643471 -0.037613161 0.68489534 7.1026873e-39
0.45326844 -0.032813042 0.68465263 3.6875141e-39
0.68543196 -0.035039295 0.68466979 9.2851087e-39
0.45880866 -0.028815016 0.68576932 2.9503176e-39
0.46508896 -0.024597725 0.68485558 4.9807683e-39
0.47169253 -0.020961357 0.68450224 8.0242792e-39
0.6772927 -0.023461515 0.68504697 6.1584209e-39
0.68105745 -0.028842092 0.68489105 7.2622335e-39
0.47572109 -0.019019449 0.68625617 8.2086691e-39
0.66866201 -0.011053125 0.6842491 6.3417275e-39
0.67233008 -0.016336173 0.68522823 5.7918048e-39
0.66445768 -0.0050097439 0.68513238 5.5170228e-39
0.65739048 0.0056817052 0.68484414 9.9384025e-39
0.66081965 0.00046492415 0.6841687 7.8172023e-39
0.64857489 0.018587852 0.68485808 1.0216789e-38
0.65219289 0.013444213 0.68468648 1.0123511e-38
0.64367038 0.02539218 0.68521643 1.0403701e-38
0.63882512 0.033963591 0.68536431 1.059025e-38
0.64130545 0.036707643 0.68488437 1.0676325e-38
0.45798737 0.04764178 0.68717462 6.730281e-39
0.64590794 0.045466796 0.6841464 1.030214e-38
0.44992736 0.051630303 0.68147588 6.2693014e-39
0.45250332 0.054075804 0.68524766 6.8263764e-39
0.64929724 0.050629355 0.68280083 9.8364818e-39
0.65478677 0.055170428 0.68535489 9.112962e-39
0.45761019 0.062063523 0.68477541 8.3064685e-39
0.4630315 0.067237437 0.68441695 8.3064685e-39
0.66569877 0.063475393 0.68525177 8.9307316e-39
0.67278969 0.06868495 0.68679738 1.0683529e-38
0.46860957 0.071777709 0.68400538 8.3064685e-39
0.47558567 0.076431662 0.68463677 8.3064685e-39
0.67678058 0.071547456 0.68864292 1.0962274e-38
0.4855572 0.083043016 0.6847567 8.5823463e-39
0.4926964 0.087896317 0.68526846 9.5018209e-39
0.49750656 0.09108673 0.68512017 8.3983068e-39
0.5049625 0.095809221 0.68526167 8.3064685e-39
0.5100199 0.098973922 0.68240082 8.3983054e-39
0.51546782 0.10238427 0.685067 8.4901479e-39
0.52410918 0.10745194 0.6851303 8.3064685e-39
0.53449762 0.11314468 0.68574667 8.3064685e-39
0.54313463 0.11724797 0.68537802 1.0335123e-38
0.60711348 0.13569036 0.68496466 6.2459068e-39
0.60549521 0.1449421 0.6853348 1.0690374e-38
0.60759676 0.15190545 0.68425649 1.1709205e-38
0.61291558 0.15537103 0.68599313 1.1708845e-38
0.45393938 0.18619993 0.68769091 1.1614723e-38
0.44514552 0.1956632 0.68512207 1.2167127e-38
0.45216414 0.1906414 0.68709755 1.1706914e-38
0.4374367 0.20557491 0.6851446 1.1706515e-38
0.44050869 0.20076366 0.684591 1.179835e-38
0.4283852 0.21811326 0.68412471 6.1910894e-39
0.43241644 0.2130598 0.68463498 8.1203158e-39
0.42626414 0.22424062 0.68481511 7.2902272e-39
0.42818028 0.23244524 0.68444121 6.8221039e-39
0.43258977 0.23780943 0.68537235 6.4533213e-39
0.42856628 0.24319378 0.68704164 9.3155968e-39
0.43697822 0.24114472 0.68931979 6.7298984e-39
0.44733226 -0.39500338 0.69547123 6.4299351e-39
0.43833375 -0.38081563 0.69880873 9.7475092e-39
0.44157863 -0.38596144 0.69445115 7.9061259e-39
0.43543607 -0.37515849 0.69496667 9.9297453e-39
0.42843142 -0.36280939 0.69555092 1.0852416e-38
0.43150914 -0.36816812 0.69480968 1.0574034e-38
0.42445898 -0.35526192 0.69460118 1.103932e-38
0.41806188 -0.34292641 0.69541031 1.1230166e-38
0.42087406 -0.34836754 0.69512904 1.1136901e-38
0.41395137 -0.33488461 0.69548297 1.0674479e-38
0.40812251 -0.32362345 0.69541383 9.1025069e-39
0.41094199 -0.3287676 0.69373924 1.0205612e-38
0.40346602 -0.31479126 0.69503027 7.0742227e-39
0.39978132 -0.30258331 0.6957252 6.2448278e-39
0.40039134 -0.30675372 0.69413131 6.1529923e-39
0.39863095 -0.2947143 0.69441795 6.2448278e-39
0.62766796 -0.29213059 0.69479209 2.8599577e-39
0.63262552 -0.29732013 0.69618243 2.7677621e-39
0.39873004 -0.2884202 0.69494891 6.2448278e-39
0.40468454 -0.2842865 0.69529021 7.1674917e-39
0.41094002 -0.2805174 0.69461673 7.4491331e-39
0.62358356 -0.28504401 0.69509089 2.8599577e-39
0.40123007 -0.27682406 0.69812304 6.2448278e-39
0.41552278 -0.27796623 0.69496316 7.6335173e-39
0.42428562 -0.27311489 0.69564635 8.6523496e-39
0.43237653 -0.27072415 0.6926263 9.9499324e-39
0.60279429 -0.27080309 0.69243526 5.2677976e-39
0.61750031 -0.27480307 0.69443458 4.242518e-39
0.62054402 -0.27965963 0.69727665 2.8599577e-39
0.43650302 -0.26919934 0.69565922 8.375048e-39
0.4439736 -0.26803014 0.69459093 6.8909174e-39
0.60888118 -0.26180989 0.6953091 1.1801041e-38
0.61253005 -0.26680562 0.69520307 1.1616651e-38
0.60361725 -0.25506625 0.69500816 1.1801041e-38
0.59573764 -0.24487984 0.69530642 1.1801041e-38
0.58715272 -0.23395111 0.69472474 1.1801041e-38
0.59117311 -0.23904417 0.6952244 1.1801041e-38
0.57816762 -0.22239521 0.69407463 1.1525175e-38
0.58199555 -0.22728166 0.69525158 1.1801041e-38
0.5690878 -0.21089736 0.69516587 1.0971288e-38
0.57324493 -0.21617396 0.69523162 1.1708845e-38
0.56413037 -0.20505942 0.69491011 1.0233732e-38
0.55495948 -0.19486935 0.69483608 4.242518e-39
0.5473851 -0.18456277 0.69495195 2.8599591e-39
0.55068105 -0.18951289 0.69642085 2.8599577e-39
0.53984058 -0.17090118 0.69411588 2.9521561e-39
0.54311866 -0.17592095 0.69347507 2.9521575e-39
0.53906429 -0.16550031 0.6943568 2.8599591e-39
0.54109919 -0.16302437 0.6940158 2.8599591e-39
0.54612356 -0.1568799 0.69449216 2.8599577e-39
0.55347008 -0.15171333 0.69474447 2.8599577e-39
0.55906171 -0.14989413 0.69829828 2.8599577e-39
0.56510365 -0.14823294 0.69524741 2.8599577e-39
0.57391942 -0.14615104 0.6948427 3.4127657e-39
0.44781962 -0.071960405 0.69501126 7.4721872e-39
0.45228633 -0.073947884 0.69648898 7.9328053e-39
0.43777844 -0.062641054 0.69475812 7.8369887e-39
0.44219148 -0.068048902 0.69518924 8.2983284e-39
0.70771241 -0.062102091 0.69403839 1.2537522e-38
0.7135092 -0.066130362 0.69603133 1.1985428e-38
0.43474993 -0.055018149 0.69475514 7.5614878e-39
0.69796503 -0.052023567 0.69544512 1.2445686e-38
0.70259255 -0.056793872 0.69537723 1.2999221e-38
0.43776301 -0.046568744 0.69524229 6.1814526e-39
0.4412958 -0.041751243 0.6953333 6.1821757e-39
0.68913096 -0.040090576 0.69341493 1.1615926e-38
0.69329208 -0.045458317 0.69542199 1.2077265e-38
0.44621295 -0.038021725 0.6951164 6.0899801e-39
0.45389739 -0.032640785 0.6952973 5.4438988e-39
0.68580186 -0.034682471 0.69547337 1.2261657e-38
0.69029307 -0.038998224 0.69968885 1.4566904e-38
0.45904461 -0.029113268 0.69575334 5.536093e-39
0.46455237 -0.025241172 0.69512933 5.7208416e-39
0.47103655 -0.020910012 0.69672 6.1821757e-39
0.67760497 -0.023323154 0.69480377 2.9517932e-39
0.68166667 -0.028139433 0.69680989 6.1782577e-39
0.4755342 -0.019295236 0.6941964 6.5509568e-39
0.66948193 -0.012289268 0.69328046 2.9517932e-39
0.67305332 -0.015697967 0.69626784 2.8599591e-39
0.66587353 -0.0053644185 0.69544506 3.3205757e-39
0.65783244 0.006606055 0.69483024 1.0971279e-38
0.6614517 0.0017818514 0.69642991 9.4043354e-39
0.64910382 0.018890379 0.6934793 1.087872e-38
0.65292162 0.014292187 0.69576883 1.050994e-38
0.64561844 0.025297867 0.69503444 1.0233714e-38
0.63908559 0.036903471 0.693138 1.1063474e-38
0.64150703 0.034237195 0.69648647 9.8649324e-39
0.4545567 0.049256459 0.69500494 6.1771072e-39
0.64529759 0.04533327 0.69568443 1.1524089e-38
0.65069062 0.049904257 0.698807 1.0233714e-38
0.44999793 0.052732639 0.69441634 5.9008748e-39
0.45187277 0.055170886 0.69572794 7.7504599e-39
0.64939398 0.050847363 0.69275057 1.0418105e-38
0.65538675 0.054859854 0.69555432 9.0351717e-39
0.6613726 0.058704857 0.69734412 8.9429761e-39
0.45668921 0.062743396 0.69468737 8.3064685e-39
0.46217117 0.067801759 0.69506025 8.3064685e-39
0.66595662 0.062666453 0.69468433 9.3117586e-39
0.6748727 0.067311585 0.6952101 1.2354213e-38
0.68282348 0.069732666 0.69736612 1.3460558e-38
0.46741638 0.071386568 0.69450444 8.3064685e-39
0.47460505 0.076133214 0.69502378 8.3064685e-39
0.48031968 0.079932526 0.69695365 8.3983054e-39
0.67814022 0.071516246 0.69098544 1.3736787e-38
0.68478853 0.071613796 0.69536191 1.3552753e-38
0.4849216 0.082882427 0.69446093 8.3983068e-39
0.49284491 0.088101417 0.6952914 8.3983068e-39
0.49807349 0.091458328 0.6941759 8.3983054e-39
0.5046289 0.095639393 0.69488937 8.3064685e-39
0.51120549 0.099707879 0.69604594 8.3064685e-39
0.51603943 0.1026524 0.69474053 8.3064685e-39
0.52480292 0.10767713 0.69490331 8.3979439e-39
0.63547581 0.10643151 0.69800061 1.1710627e-38
0.52960271 0.11033013 0.69379431 8.3061084e-39
0.53462815 0.11288516 0.69368237 9.6901008e-39
0.5411225 0.11450712 0.69119108 1.1258483e-38
0.60759187 0.13490903 0.6949392 1.069073e-38
0.60583752 0.14467011 0.69544888 1.1708485e-38
0.60709846 0.15171382 0.69634122 1.1801041e-38
0.6126802 0.15529002 0.6975196 1.1801041e-38
0.45598522 0.18776882 0.69411707 1.1608257e-38
0.44419873 0.19607247 0.69492859 1.179835e-38
0.45249885 0.19121358 0.69269592 1.1890544e-38
0.43682259 0.20545448 0.69528633 1.1706515e-38
0.4405027 0.20098165 0.69142354 1.1890544e-38
0.42817637 0.21757802 0.69541162 4.9943651e-39
0.43164366 0.2128903 0.69447744 9.3155968e-39
0.42536515 0.22472593 0.69522339 8.9457535e-39
0.42850229 0.2333398 0.69445544 5.2551453e-39
0.4329676 0.23803747 0.69535971 5.1629511e-39
0.43852282 0.24211049 0.69332486 7.0061266e-39
0.44072619 0.24316671 0.69754088 7.2830652e-39
0.44596863 -0.39479589 0.70643491 6.890909e-39
0.43862826 -0.38210028 0.70537424 9.7518196e-39
0.44274941 -0.38693985 0.70474154 8.8295116e-39
0.4502297 -0.38534686 0.70275718 7.5384294e-39
0.43489811 -0.37545645 0.70475966 9.7489455e-39
0.42792314 -0.36319992 0.70632952 1.094461e-38
0.43095979 -0.36839962 0.70430493 1.0666589e-38
0.42370868 -0.35509709 0.70465446 1.1040756e-38
0.41801614 -0.34413964 0.70486957 1.1138329e-38
0.42021921 -0.34873432 0.7078712 1.1137618e-38
0.41314185 -0.33467576 0.70518136 1.0954654e-38
0.40759817 -0.32394752 0.70499933 9.7575677e-39
0.4101235 -0.32910794 0.7068758 1.0680949e-38
0.40298551 -0.31500059 0.70586479 7.0785373e-39
0.39849165 -0.30467558 0.70587128 6.2448278e-39
0.40029576 -0.30928537 0.70703459 6.2448292e-39
0.63706005 -0.30085889 0.70243406 2.8599563e-39
0.3970089 -0.29320699 0.70579696 6.2448278e-39
0.62846941 -0.29138055 0.70373535 2.8603164e-39
0.63341266 -0.2964569 0.7050069 2.7684795e-39
0.39911529 -0.28956246 0.70129627 6.2448278e-39
0.40504721 -0.28545734 0.70497549 6.9827417e-39
0.41095415 -0.2806108 0.70490301 6.2451879e-39
0.6244067 -0.28510612 0.7052815 2.861394e-39
0.40656701 -0.27253541 0.70989615 7.6342418e-39
0.41600195 -0.27765825 0.7046532 7.8200736e-39
0.42508033 -0.27260613 0.7049675 7.4491289e-39
0.44964349 -0.27162033 0.70011079 9.6535465e-39
0.61760408 -0.27394351 0.70489085 3.5993108e-39
0.62063277 -0.27901593 0.70456827 2.8613954e-39
0.43338731 -0.26812184 0.70619124 6.2448292e-39
0.44216409 -0.26699468 0.70386028 7.0717102e-39
0.60948396 -0.26086134 0.70363045 1.1708846e-38
0.61274797 -0.26577497 0.70538193 1.014477e-38
0.60523039 -0.25491205 0.70513374 1.0421715e-38
0.59665686 -0.2437644 0.70500565 1.0605744e-38
0.60052919 -0.24899314 0.70406067 1.1157116e-38
0.5880267 -0.23306063 0.70460492 1.0881609e-38
0.59221381 -0.23808752 0.70512694 1.0789415e-38
0.57830167 -0.22128385 0.70399171 1.1341146e-38
0.58254212 -0.2262391 0.70517719 1.0881609e-38
0.56973302 -0.21065673 0.70368648 4.0577694e-39
0.5738976 -0.21554117 0.70546955 8.8529679e-39
0.5655157 -0.20504098 0.70525533 3.4142035e-39
0.55650258 -0.19410256 0.70459378 2.8603164e-39
0.56263083 -0.19909272 0.70473272 2.8610353e-39
0.54815406 -0.18268593 0.70407164 2.8599577e-39
0.55190378 -0.18693173 0.70618761 2.8603164e-39
0.53938359 -0.17111373 0.70221412 2.8599577e-39
0.54389662 -0.17530094 0.70567709 2.8599577e-39
0.53951198 -0.16738951 0.70254236 2.8599577e-39
0.54081267 -0.16388835 0.7057299 2.8599577e-39
0.54459471 -0.1561275 0.70537668 2.8599577e-39
0.5551855 -0.15142888 0.70496851 2.8599577e-39
0.56532323 -0.14854918 0.70415658 2.8599577e-39
0.57479829 -0.1459913 0.70445836 2.8599577e-39
0.58053529 -0.14521827 0.70909482 2.8599577e-39
0.4495163 -0.071002863 0.70158613 6.8246472e-39
0.45383433 -0.071879931 0.70322764 6.0791284e-39
0.71059549 -0.07100457 0.70672953 1.1149548e-38
0.43863735 -0.062183142 0.70245665 5.9919929e-39
0.44460651 -0.06542404 0.70613801 5.2471999e-39
0.45475629 -0.068426326 0.70801997 5.888954e-39
0.46404558 -0.063818894 0.70871192 6.8101872e-39
0.472716 -0.06194802 0.70435119 8.0137905e-39
0.70916271 -0.060148418 0.70072526 1.2353851e-38
0.71483016 -0.062255006 0.7031101 1.2446046e-38
0.72200507 -0.061352432 0.70392579 1.6594849e-38
0.43725047 -0.054346729 0.70422322 5.0653366e-39
0.44146973 -0.055848245 0.70862734 4.7847728e-39
0.4753854 -0.057858553 0.70776784 6.9056339e-39
0.4836446 -0.052291196 0.70848328 6.4406816e-39
0.69950366 -0.051677763 0.70036256 1.428996e-38
0.70559806 -0.054164954 0.70357972 1.4382514e-38
0.71475291 -0.05475628 0.70693964 1.7516808e-38
0.72473538 -0.053879436 0.70650053 1.5396667e-38
0.7314049 -0.051353067 0.70648676 1.4013736e-38
0.43829036 -0.047029089 0.70393574 4.04974e-39
0.44380125 -0.04379816 0.70671439 4.6011075e-39
0.45012814 -0.04078465 0.70949948 4.7847728e-39
0.48968205 -0.049187042 0.70609385 7.7346715e-39
0.49188656 -0.044482194 0.70733219 8.2896529e-39
0.69688559 -0.04462919 0.70197898 1.4474351e-38
0.70535785 -0.044763748 0.70445502 1.8254728e-38
0.71542066 -0.045210615 0.7057398 1.5581061e-38
0.72512692 -0.045049157 0.7061078 1.4935692e-38
0.73475939 -0.044250537 0.70641649 1.5673257e-38
0.74424309 -0.042877052 0.70466053 1.7701198e-38
0.75378191 -0.041867118 0.70172977 1.5304473e-38
0.44794869 -0.038597409 0.70403165 4.2344927e-39
0.45507017 -0.034910053 0.70568931 4.4181609e-39
0.46238461 -0.031574678 0.70828724 4.6003844e-39
0.49171358 -0.036655784 0.70944095 7.6424758e-39
0.6884163 -0.032746848 0.70157987 1.3091784e-38
0.6947276 -0.035408083 0.70333076 1.7055829e-38
0.70524764 -0.035303246 0.70499098 1.6779602e-38
0.7157535 -0.034626815 0.70541906 1.4935692e-38
0.72531873 -0.035006929 0.70610118 1.5027888e-38
0.73536706 -0.035231143 0.70630157 1.7793395e-38
0.74539053 -0.034639232 0.70657539 1.9084131e-38
0.75402147 -0.034458686 0.70480746 1.7793394e-38
0.46593931 -0.026356166 0.70479035 4.3263282e-39
0.47450063 -0.0232013 0.7062521 4.87733e-39
0.48351207 -0.024070857 0.70742434 6.62977e-39
0.67873055 -0.02086553 0.70072824 3.4131483e-39
0.6851998 -0.024291767 0.70292276 7.1931607e-39
0.69494325 -0.025286112 0.70524758 1.6779973e-38
0.70536786 -0.02539766 0.7056728 1.539667e-38
0.71563536 -0.024886295 0.70553315 1.5120083e-38
0.72562712 -0.02522926 0.70580912 1.6779602e-38
0.73535752 -0.024655072 0.70646954 1.9084491e-38
0.74472463 -0.025593732 0.70698488 1.9176328e-38
0.75180143 -0.02734408 0.70642406 1.9176331e-38
0.47704211 -0.019549593 0.70050269 5.8951015e-39
0.67669809 -0.014190404 0.70259464 3.966699e-39
0.68483728 -0.015231917 0.70528513 4.5202539e-39
0.69473743 -0.014550821 0.70632607 6.1794053e-39
0.70486933 -0.014838216 0.70616007 1.2908146e-38
0.71525353 -0.015135326 0.70590109 1.5949484e-38
0.72532243 -0.015411969 0.70609778 1.9176328e-38
0.73426151 -0.015039016 0.70708543 1.9268884e-38
0.74408817 -0.015688939 0.7040835 1.7609002e-38
0.6683467 -0.0028191006 0.70129842 3.7823049e-39
0.67443126 -0.0057566976 0.70442438 4.059259e-39
0.68450165 -0.0054362868 0.70659369 4.8890477e-39
0.69455153 -0.0049700295 0.7065106 4.8890463e-39
0.70466793 -0.0051817922 0.70635635 5.1659891e-39
0.71484512 -0.0045096274 0.70629412 1.1065e-38
0.72470421 -0.0046992921 0.70668429 1.8992307e-38
0.73356742 -0.0054176045 0.70642495 1.8254743e-38
0.74055845 -0.0041842386 0.70283824 1.5211936e-38
0.65931273 0.0092482837 0.70075452 1.097128e-38
0.66562319 0.0052762628 0.70351702 9.4969136e-39
0.67495167 0.0047242274 0.70606422 4.8890351e-39
0.68478841 0.0047298274 0.70646507 4.889405e-39
0.69462395 0.0045981114 0.70643902 4.8890463e-39
0.70465928 0.0044635576 0.70636445 4.8894064e-39
0.71482146 0.0052113896 0.70631671 4.8890449e-39
0.72448897 0.0047937995 0.70647991 8.0233053e-39
0.73184729 0.0037889208 0.70525175 1.2170968e-38
0.65657973 0.01600131 0.70259947 1.3368366e-38
0.66475433 0.014781374 0.70512635 1.6226801e-38
0.67486268 0.01538604 0.70586109 9.2214505e-39
0.6851061 0.015088785 0.70614523 4.889405e-39
0.69470072 0.01503865 0.70636243 4.8890449e-39
0.70462245 0.014985673 0.70640057 4.8894064e-39
0.71487993 0.014930501 0.70626086 4.8890477e-39
0.72303373 0.013006259 0.70595175 5.4422074e-39
0.64788491 0.026808437 0.70181507 1.4474712e-38
0.6553185 0.025246369 0.70350808 1.6779605e-38
0.66451418 0.025403462 0.70514733 1.4935692e-38
0.6747092 0.025429484 0.70566922 1.5027889e-38
0.68528795 0.025456838 0.70596218 1.152523e-38
0.69464368 0.0254803 0.70641869 5.9031842e-39
0.70448899 0.025506223 0.70653081 4.9812433e-39
0.71350276 0.024411289 0.70619625 6.1797655e-39
0.64547956 0.035992853 0.70307946 1.5396307e-38
0.65500998 0.035256077 0.7048257 1.5673257e-38
0.66448337 0.035613295 0.70518011 1.5027888e-38
0.67455912 0.035239335 0.70555043 1.5027888e-38
0.68536997 0.034964196 0.70587957 1.7148026e-38
0.69485033 0.035056408 0.70621455 1.7793773e-38
0.70436275 0.034844428 0.70600522 1.1433414e-38
0.7123003 0.03348453 0.703834 1.4565832e-38
0.45493543 0.047904219 0.70383352 6.7306383e-39
0.64708394 0.043027226 0.70229465 1.4013733e-38
0.65484685 0.046039999 0.7037065 1.410593e-38
0.66538483 0.045128837 0.70526713 1.4843496e-38
0.67558581 0.044372734 0.7058937 1.6134235e-38
0.68520248 0.044587888 0.7057932 1.9174883e-38
0.69551873 0.044341289 0.70521742 1.9636939e-38
0.70369893 0.043947019 0.70361841 1.7240218e-38
0.45370078 0.055545438 0.70328689 8.3972446e-39
0.65743417 0.052637659 0.70150632 1.1432258e-38
0.66538262 0.054489814 0.70373994 1.2907388e-38
0.67488468 0.055038467 0.70667011 1.7056189e-38
0.68490255 0.054497685 0.70668483 2.0190477e-38
0.6942575 0.054219183 0.70482105 1.9637302e-38
0.70015961 0.054427598 0.70218003 1.7240581e-38
0.45564416 0.063298993 0.7048018 8.3990215e-39
0.46217889 0.068109006 0.70547014 8.3064685e-39
0.66786474 0.06105667 0.70166183 1.0233715e-38
0.67539698 0.063051753 0.70462787 1.4474714e-38
0.68537414 0.065183133 0.70453471 1.6594852e-38
0.69094855 0.063382939 0.70559591 1.7148387e-38
0.46761173 0.071699567 0.70437795 8.3064685e-39
0.47547778 0.076910637 0.70547813 8.3064685e-39
0.48543027 0.083420828 0.70486301 8.3064685e-39
0.49297705 0.088300146 0.70516896 8.3064685e-39
0.49793071 0.091471963 0.70480055 8.3061098e-39
0.50519603 0.09598539 0.70516473 8.5819722e-39
0.51029241 0.099164844 0.70356774 8.3979439e-39
0.51582718 0.10247941 0.7047646 8.5790981e-39
0.52480978 0.10748776 0.70516437 8.4836949e-39
0.63563848 0.10844484 0.70439541 1.493676e-38
0.64145619 0.10965543 0.70626134 1.3460562e-38
0.53495038 0.11305751 0.70424628 8.207485e-39
0.54329872 0.11735295 0.70707524 8.4880179e-39
0.63536096 0.11069735 0.70917869 1.5950206e-38
0.64292312 0.11462864 0.70835054 1.5488866e-38
0.60846984 0.13592744 0.70507628 1.1893236e-38
0.610623 0.13156943 0.70776272 1.1801041e-38
0.60769117 0.14495029 0.70472956 1.2815193e-38
0.61059022 0.14864716 0.70849866 1.3644953e-38
0.60886508 0.15159701 0.70310634 1.3368366e-38
0.61397523 0.15324733 0.70608169 1.3644953e-38
0.44880271 0.18979396 0.70397139 1.1890226e-38
0.45369422 0.18948029 0.70597285 1.2074968e-38
0.43907517 0.19932501 0.70720482 1.1781869e-38
0.4431392 0.19443098 0.70532376 1.1788678e-38
0.43550381 0.20500304 0.70498061 1.178975e-38
0.42797503 0.21611655 0.70533234 1.0510876e-38
0.431169 0.21116541 0.70524454 1.1706156e-38
0.42492613 0.22451015 0.70520788 1.0324698e-38
0.42752552 0.23241116 0.70501733 5.2551425e-39
0.43268549 0.23764086 0.70662403 5.3473367e-39
0.43619132 0.24015249 0.70097458 5.2551397e-39
0.44620186 -0.39557928 0.71398795 6.6154067e-39
0.43814293 -0.38241425 0.71559852 7.3536794e-39
0.44158465 -0.38806671 0.71521282 8.0933969e-39
0.4336957 -0.37464663 0.71511155 8.2731134e-39
0.4278914 -0.36410043 0.7153579 1.0761657e-38
0.43020791 -0.36879605 0.71816438 1.075986e-38
0.42318463 -0.35506487 0.71463364 1.0949998e-38
0.41777775 -0.34468997 0.71529549 1.0859951e-38
0.42042845 -0.34978396 0.71513247 1.113726e-38
0.41279718 -0.33502206 0.71538931 9.1975738e-39
0.4075605 -0.32474327 0.71506596 7.536633e-39
0.40281212 -0.31462562 0.71565306 6.4295763e-39
0.39852962 -0.30366233 0.71498126 6.2448278e-39
0.40155414 -0.30742279 0.71659577 6.3373821e-39
0.41029653 -0.30991486 0.71109718 6.2448278e-39
0.63803113 -0.30038136 0.71237266 6.2700511e-39
0.39629713 -0.29459226 0.71505785 6.2448278e-39
0.40003985 -0.29036427 0.71006799 6.2448278e-39
0.62882203 -0.29028273 0.71019363 2.8696589e-39
0.63390493 -0.29522762 0.71513891 3.1430004e-39
0.3987287 -0.28935733 0.7183072 6.2448278e-39
0.40507594 -0.28554717 0.71462405 7.1678546e-39
0.41128546 -0.28090665 0.7136063 9.7648194e-39
0.62583357 -0.28485623 0.71488106 2.7875246e-39
0.41615918 -0.27755958 0.71489352 8.9318204e-39
0.42486995 -0.27265358 0.71456987 8.6530741e-39
0.61842644 -0.27340835 0.71432215 2.7878833e-39
0.6215328 -0.27816889 0.71573532 2.7889623e-39
0.43446967 -0.26733416 0.71550936 7.8186317e-39
0.61345792 -0.26518017 0.71510851 3.2499348e-39
0.60653311 -0.25502494 0.7149806 3.3421305e-39
0.61003363 -0.25985652 0.71639615 2.7907588e-39
0.59720051 -0.24264134 0.71470326 3.5258001e-39
0.60151809 -0.2480727 0.71470523 3.7098312e-39
0.58862329 -0.23194355 0.71472096 3.9856964e-39
0.59256929 -0.23680903 0.71512055 3.5261602e-39
0.57890332 -0.22036524 0.71224582 5.3650225e-39
0.58328646 -0.22525704 0.71531355 3.7098312e-39
0.57484519 -0.21491726 0.71492314 3.3403326e-39
0.56673014 -0.2048566 0.71514374 2.786447e-39
0.57132733 -0.20976281 0.71881551 2.7903986e-39
0.55716473 -0.19333003 0.71486253 2.785368e-39
0.56140316 -0.19840562 0.71505016 2.7857281e-39
0.54926407 -0.18164106 0.71583986 2.7842918e-39
0.55239135 -0.18675669 0.71513337 2.7839316e-39
0.54625857 -0.17464292 0.71281987 2.8685813e-39
0.5422594 -0.16433494 0.71450192 2.8628331e-39
0.54638553 -0.15620911 0.71402979 3.0439944e-39
0.55181885 -0.15191388 0.71639544 3.0439944e-39
0.55632293 -0.14925985 0.71593225 2.8599591e-39
0.5652355 -0.14721292 0.7152586 2.8599577e-39
0.57517791 -0.14614549 0.71479219 2.8599577e-39
0.58163184 -0.14553395 0.71508044 4.7956834e-39
0.44800538 -0.061639216 0.71142364 5.0606381e-39
0.45435935 -0.063277148 0.71186131 6.2566519e-39
0.4627164 -0.061125647 0.71094453 6.5328759e-39
0.44605538 -0.054314509 0.71218503 5.520533e-39
0.45472845 -0.054829106 0.71394545 6.2566519e-39
0.46465093 -0.054658774 0.71322984 6.5328759e-39
0.47397035 -0.053309701 0.71186519 6.4406816e-39
0.4809368 -0.051219977 0.71111757 6.5328759e-39
0.44733652 -0.046683222 0.71155304 5.2446678e-39
0.45499873 -0.045108337 0.71315414 5.796757e-39
0.46463194 -0.044794139 0.71431696 6.2566519e-39
0.47461313 -0.04486002 0.71405995 6.4406816e-39
0.48397076 -0.044182867 0.71281707 6.7169056e-39
0.45697841 -0.038779177 0.711124 5.2446678e-39
0.46549347 -0.035622586 0.71215087 5.7045627e-39
0.47476551 -0.034721881 0.71363586 6.0726222e-39
0.4842113 -0.035527028 0.71322548 6.6250715e-39
0.46869367 -0.028929168 0.71029228 5.1528323e-39
0.47578767 -0.027836856 0.71163797 5.520533e-39
0.48315698 -0.027946034 0.71104079 6.1648164e-39
0.68329 -0.0083928034 0.71395242 1.4474351e-38
0.45456958 0.048523527 0.71422487 6.4536941e-39
0.46040243 0.048310734 0.71140862 5.9005203e-39
0.45240912 0.055215176 0.71535575 7.1962225e-39
0.45585433 0.062909707 0.71473455 8.3064685e-39
0.46346822 0.068223171 0.71470833 8.3064685e-39
0.46813115 0.071274348 0.71483499 8.3064685e-39
0.47436675 0.075792871 0.71499509 8.3064671e-39
0.4846257 0.083133467 0.71524805 8.5808946e-39
0.49261522 0.088247932 0.71504503 8.2096037e-39
0.49754524 0.091234423 0.71446568 8.6695085e-39
0.50541127 0.09600576 0.71480387 8.9436165e-39
0.51174217 0.099849857 0.71761483 1.1616647e-38
0.51525754 0.10197144 0.71428603 9.6805075e-39
0.5237875 0.10686578 0.71510667 1.0602496e-38
0.52951479 0.11014685 0.71739864 8.7585806e-39
0.53490663 0.11325745 0.71456712 8.2082445e-39
0.54297537 0.11740034 0.71602696 6.4593778e-39
0.63577843 0.11365952 0.71176618 1.880968e-38
0.6402362 0.11746973 0.71243745 2.0006452e-38
0.61308348 0.12986332 0.71420246 1.1248551e-38
0.61251867 0.13543221 0.71482891 1.2077267e-38
0.6147489 0.14486346 0.71356392 1.4843495e-38
0.62220889 0.14661527 0.71668762 1.392154e-38
0.6188677 0.15102012 0.7114172 1.5949844e-38
0.62232941 0.15046439 0.71244913 1.3644953e-38
0.45459759 0.18976496 0.71516949 1.2904331e-38
0.43938035 0.19892797 0.71315891 1.177757e-38
0.44428664 0.19393803 0.71568805 1.3257696e-38
0.45217553 0.19089334 0.71760845 1.5115916e-38
0.43556938 0.20497978 0.71548849 1.1783303e-38
0.4403702 0.20002075 0.71959811 1.214599e-38
0.42771199 0.2164001 0.715532 1.179835e-38
0.43097976 0.21167234 0.71615684 1.1890544e-38
0.42547652 0.22453888 0.71516585 1.0600562e-38
0.43205935 0.22124916 0.71711648 1.214599e-38
0.4282763 0.23204015 0.71373272 6.4533157e-39
0.43286631 0.23645499 0.71608031 7.7436594e-39
0.43897444 0.24163429 0.71429455 8.5730459e-39
0.44351816 0.24411051 0.71720487 1.0692796e-38
0.44503993 -0.39476338 0.72449756 6.3377422e-39
0.43806574 -0.38357303 0.72563505 6.3377422e-39
0.4405683 -0.38784945 0.72790623 6.2448278e-39
0.43316543 -0.37489808 0.72506291 8.7355279e-39
0.42775109 -0.36464798 0.72550362 1.0489375e-38
0.43058378 -0.36964148 0.72005945 1.0759143e-38
0.42258483 -0.35466883 0.72450149 9.3841189e-39
0.41763142 -0.34506175 0.72519708 1.0399693e-38
0.41258851 -0.33520404 0.72527236 8.9184786e-39
0.40714592 -0.32489637 0.72518927 6.5214132e-39
0.40333271 -0.31507882 0.72473186 6.2448278e-39
0.39915982 -0.30270869 0.72474879 6.2448278e-39
0.40084687 -0.30766192 0.72415698 6.2448278e-39
0.39641854 -0.29447168 0.72406316 6.2448278e-39
0.63512951 -0.29458937 0.72505963 2.8656946e-39
0.64124703 -0.29876718 0.72931778 2.6748055e-39
0.39745983 -0.28834426 0.72550797 6.982383e-39
0.40504637 -0.28432709 0.7246179 6.9841879e-39
0.41101581 -0.28076756 0.72465575 8.4679611e-39
0.62658918 -0.28387845 0.7255671 2.7900399e-39
0.63072276 -0.28904742 0.72616076 2.7900399e-39
0.4160763 -0.27777779 0.72449636 8.8381842e-39
0.42507038 -0.27264151 0.72487539 6.6157711e-39
0.61910385 -0.27220654 0.72437066 2.7904e-39
0.62224144 -0.27705273 0.72494322 2.7904e-39
0.42999852 -0.26980478 0.72346824 6.2448278e-39
0.4344103 -0.26740858 0.72558397 6.2451879e-39
0.61481696 -0.26534244 0.72490722 2.7903986e-39
0.60720211 -0.25439587 0.72457999 2.7903986e-39
0.61097592 -0.25931877 0.72729897 2.7903986e-39
0.59833819 -0.24253125 0.72516942 2.7900399e-39
0.60239506 -0.24743453 0.72510487 3.1580993e-39
0.58925122 -0.23123576 0.72426772 2.7903986e-39
0.59327638 -0.23612195 0.72524709 2.7903986e-39
0.58432597 -0.22483255 0.72510272 2.7903986e-39
0.57599211 -0.21436474 0.72466403 2.7903986e-39
0.58077604 -0.21946473 0.72754604 2.9672495e-39
0.56699604 -0.20316507 0.72425777 2.7903986e-39
0.57123655 -0.20796151 0.72639406 2.7903986e-39
0.55810434 -0.19250654 0.72466058 2.7903986e-39
0.562298 -0.1973037 0.72518802 2.7903986e-39
0.54887259 -0.18174791 0.72384059 2.7903986e-39
0.55296606 -0.18635833 0.72561818 2.7903986e-39
0.54505253 -0.17458838 0.72531378 2.7911203e-39
0.54366851 -0.16569898 0.72447491 2.8790055e-39
0.54578435 -0.15511735 0.72611129 2.862473e-39
0.55337936 -0.15072073 0.72002673 2.9521561e-39
0.55437911 -0.14845775 0.7253387 2.8599577e-39
0.56634659 -0.1465221 0.72460538 2.8599577e-39
0.57732671 -0.14566053 0.72610945 2.8599577e-39
0.45461434 0.048567303 0.72440076 6.0849116e-39
0.45273373 0.054965168 0.72512627 7.1958638e-39
0.45636544 0.062490914 0.72496223 8.3064685e-39
0.46275938 0.06777095 0.72516799 8.6730888e-39
0.46836343 0.071383439 0.72577798 8.5765828e-39
0.47478166 0.075932562 0.72482753 8.5762521e-39
0.48185208 0.076922886 0.72743708 9.128061e-39
0.48540592 0.083461031 0.72478199 9.2195125e-39
0.49370179 0.088685364 0.72501802 1.0971269e-38
0.4982731 0.091549657 0.7264263 1.1616649e-38
0.50447989 0.09547919 0.7244969 1.1340061e-38
0.51061088 0.09823285 0.72448051 1.0696463e-38
0.51664078 0.10266222 0.72516501 9.4961499e-39
0.52548069 0.10768164 0.7247985 8.1132154e-39
0.53507131 0.11305646 0.72477967 7.9316562e-39
0.5440588 0.11620983 0.72670901 9.1365809e-39
0.61633122 0.13503717 0.72565013 1.1603324e-38
0.61808652 0.14100449 0.72190803 1.2169823e-38
0.62465531 0.14263335 0.72447997 1.3177853e-38
0.44586095 0.19707508 0.72329021 1.4917907e-38
0.45482799 0.19548754 0.72353983 1.9080262e-38
0.46320364 0.19790007 0.72264796 1.9448326e-38
0.43762019 0.2069674 0.72267568 1.3992023e-38
0.44479889 0.2047957 0.72599727 1.7688389e-38
0.45503062 0.20492281 0.7270534 1.9909649e-38
0.46457523 0.20515932 0.7255345 2.0555008e-38
0.47269699 0.20594178 0.72171718 2.0001487e-38
0.42868176 0.21845876 0.72130775 1.3181264e-38
0.43450746 0.21528648 0.72457588 1.5946373e-38
0.44468597 0.21488221 0.72760427 1.9172453e-38
0.45484525 0.21483001 0.72826743 1.9817813e-38
0.46454066 0.21493551 0.72730136 2.0463173e-38
0.47209144 0.21330781 0.72381556 2.0278791e-38
0.42794427 0.22446114 0.72251755 1.3734429e-38
0.43479103 0.22518465 0.72610795 1.7789899e-38
0.44465438 0.22486827 0.72793961 1.9265006e-38
0.4549261 0.2247967 0.72805572 2.0002202e-38
0.46299988 0.22418655 0.72644466 1.9633793e-38
0.42948622 0.23098585 0.72180057 1.1429938e-38
0.4357293 0.23408772 0.72391087 1.5024435e-38
0.44469893 0.2350481 0.72692263 1.7697705e-38
0.45391726 0.2342494 0.72731298 1.9357208e-38
0.46093047 0.23274626 0.72460347 1.8712226e-38
0.44588718 0.24201317 0.7237466 1.4287599e-38
0.45154005 0.24060452 0.72593415 1.6131522e-38
0.44443581 -0.39449903 0.73515564 6.2448278e-39
0.43778938 -0.38359782 0.73458403 6.2448278e-39
0.44091928 -0.38876358 0.73504734 6.2448278e-39
0.43301317 -0.37538773 0.73531121 7.5359155e-39
0.42723572 -0.36482751 0.73560023 8.3706928e-39
0.43019176 -0.36985683 0.73053807 9.5624061e-39
0.4222621 -0.35501474 0.73483527 6.6150424e-39
0.41730082 -0.34506065 0.73539531 8.7401872e-39
0.42115769 -0.34946716 0.73730069 6.4295763e-39
0.40999299 -0.33050591 0.73348832 6.521772e-39
0.412734 -0.33595657 0.73521787 6.7994323e-39
0.40723395 -0.32513407 0.73526978 6.3370234e-39
0.39970124 -0.31091082 0.73825073 6.2448278e-39
0.40296993 -0.31628752 0.73458195 6.2448278e-39
0.39803734 -0.30488771 0.73564357 6.2448278e-39
0.40109628 -0.30971718 0.73099393 6.2448278e-39
0.64739031 -0.30307171 0.73317999 4.7968478e-39
0.39626166 -0.2926338 0.73558015 6.7979945e-39
0.6363228 -0.29267061 0.7345342 2.9561092e-39
0.64211428 -0.29760638 0.73391074 2.5826183e-39
0.39883178 -0.28906175 0.73331606 9.1035733e-39
0.40439048 -0.2851294 0.73509187 6.4295791e-39
0.41137764 -0.28073648 0.73489267 7.1718245e-39
0.62792522 -0.28344026 0.73465061 2.7835715e-39
0.63212162 -0.28791401 0.73607296 2.8718169e-39
0.41648307 -0.27781478 0.73489136 9.9488492e-39
0.42481589 -0.27324566 0.73499817 9.8559333e-39
0.43146202 -0.27083209 0.73791879 8.8378213e-39
0.61939365 -0.27091235 0.73468733 2.7832128e-39
0.62287539 -0.27609649 0.7352736 2.7810576e-39
0.43584341 -0.26818925 0.7347886 6.4299393e-39
0.44156045 -0.26647756 0.73657101 6.5232153e-39
0.6153186 -0.26477385 0.7348367 2.781775e-39
0.60727191 -0.25349522 0.73487544 2.7821352e-39
0.61092883 -0.25829947 0.73559016 2.7806974e-39
0.58984125 -0.24495438 0.73171109 3.136553e-39
0.59847707 -0.24207509 0.7351594 2.781775e-39
0.60230768 -0.24720137 0.73515373 2.781775e-39
0.58963978 -0.23030512 0.73328745 2.7846505e-39
0.59351206 -0.2353477 0.73481846 2.7828526e-39
0.57981557 -0.22351852 0.73515344 4.7050081e-39
0.58586633 -0.22506024 0.73525727 2.7821338e-39
0.57680124 -0.2137022 0.73483282 2.7835729e-39
0.58090603 -0.21877778 0.73497003 2.7835715e-39
0.56788057 -0.2026196 0.73514247 2.7839302e-39
0.57195091 -0.2075561 0.73564684 2.7821352e-39
0.5587008 -0.19150166 0.73465687 2.7857281e-39
0.56288517 -0.1964853 0.73536748 2.7839316e-39
0.54860204 -0.18035652 0.73063433 2.7903986e-39
0.55342573 -0.18513346 0.73526174 2.7846505e-39
0.54767066 -0.17506088 0.73540366 2.8804447e-39
0.55066031 -0.17881556 0.73911589 3.1412249e-39
0.54495496 -0.16519752 0.73655456 3.0662793e-39
0.54657662 -0.15597071 0.73400795 2.8628331e-39
0.55090892 -0.1510099 0.73390609 2.8599577e-39
0.55468971 -0.14749545 0.73546696 2.8599591e-39
0.56309199 -0.14540641 0.73566896 2.8599591e-39
0.57414895 -0.14505804 0.73491967 2.8599577e-39
0.58092821 -0.14452991 0.73845553 5.9016582e-39
0.45473686 0.048428256 0.73370939 6.6380854e-39
0.46286231 0.047353636 0.73288184 4.3331946e-39
0.45339924 0.054576185 0.73566681 7.1962225e-39
0.45775372 0.062728919 0.73551178 8.3064685e-39
0.46303332 0.067862816 0.73469085 7.4749226e-39
0.45213667 0.072378822 0.73949498 8.3064685e-39
0.46818823 0.071072981 0.73402315 8.7599889e-39
0.47506395 0.075869873 0.73531789 1.1248227e-38
0.48036766 0.079550795 0.73380286 1.1616649e-38
0.48537958 0.083188094 0.73458445 1.0602497e-38
0.49248949 0.088039465 0.73504019 9.4961499e-39
0.49752045 0.09121114 0.73539305 8.9429761e-39
0.50530225 0.095996261 0.73488969 8.3898023e-39
0.51180911 0.09991651 0.73902994 8.3898023e-39
0.51550603 0.10196504 0.7342605 8.3898023e-39
0.52411211 0.10682175 0.73506093 8.9429761e-39
0.5323649 0.11139181 0.7341091 9.1287869e-39
0.62484026 0.12761712 0.73446715 1.3258881e-38
0.63292611 0.12851693 0.73210949 1.4923449e-38
0.61924416 0.13221465 0.73132777 1.1949424e-38
0.62371629 0.13456993 0.73509341 1.3144007e-38
0.63004798 0.13429391 0.73746407 1.4802087e-38
0.44432268 -0.39507285 0.74547666 6.2448278e-39
0.43768132 -0.38372734 0.74443173 6.2448278e-39
0.44044992 -0.3887465 0.74728626 6.2448278e-39
0.42994398 -0.37019706 0.74060184 6.5214132e-39
0.4328239 -0.37492248 0.74522585 6.4292176e-39
0.42699617 -0.36448598 0.74526471 6.6154025e-39
0.41995686 -0.35042948 0.74416077 6.2448292e-39
0.42237276 -0.3553516 0.74455822 6.2448278e-39
0.41751936 -0.34540856 0.74520183 6.2455466e-39
0.40994483 -0.33080757 0.74447858 6.2448292e-39
0.41238064 -0.33544663 0.74503762 6.3377408e-39
0.40661371 -0.32490465 0.74546236 6.2448292e-39
0.4193866 -0.32987028 0.7414099 6.2448278e-39
0.39940253 -0.31095093 0.74602443 6.2448292e-39
0.40210354 -0.31585413 0.74454314 6.2448278e-39
0.39638165 -0.30517274 0.74604195 6.2448278e-39
0.39624414 -0.29474586 0.74458516 7.2589671e-39
0.40084785 -0.29063654 0.7460503 6.2448278e-39
0.63789034 -0.2919324 0.74473369 2.8595975e-39
0.64125431 -0.29590264 0.74448597 1.660662e-39
0.40546075 -0.28578934 0.74491942 6.5232139e-39
0.41104391 -0.28086978 0.74609989 8.2824909e-39
0.62907916 -0.28184181 0.74443215 2.8599577e-39
0.63330549 -0.28648844 0.74534923 2.8599577e-39
0.41600758 -0.27781603 0.74522179 8.0048236e-39
0.42502597 -0.27389723 0.74497354 6.6150494e-39
0.43261465 -0.2709884 0.74507207 6.2448292e-39
0.62373072 -0.27488947 0.74502367 2.8599577e-39
0.67344826 -0.27476248 0.74882728 6.2712114e-39
0.43765119 -0.26914027 0.74527597 6.2448278e-39
0.44253266 -0.26736262 0.74442255 6.3377436e-39
0.61648458 -0.26492262 0.74464452 2.8599577e-39
0.62053859 -0.26938236 0.74969113 2.8599577e-39
0.66876954 -0.26468569 0.74949682 5.3503775e-39
0.67042297 -0.26375419 0.74790221 7.1935138e-39
0.60742825 -0.25316527 0.74573785 2.8599577e-39
0.61127287 -0.25801459 0.7445128 2.8599577e-39
0.65939474 -0.25025585 0.74597293 2.7814163e-39
0.66717362 -0.25583443 0.74797744 6.9169283e-39
0.59877592 -0.24223158 0.7447713 2.8599577e-39
0.6025722 -0.24714118 0.74539369 2.8599577e-39
0.6581924 -0.24252532 0.74773496 5.4421738e-39
0.66288263 -0.24836992 0.74754667 6.2715589e-39
0.59359819 -0.23501387 0.74518049 2.8599577e-39
0.64819795 -0.23240303 0.7490139 4.7971841e-39
0.65307409 -0.23473176 0.74646306 5.2577783e-39
0.58628219 -0.22484593 0.74542129 2.8599577e-39
0.59020346 -0.22963163 0.74890637 2.8599577e-39
0.64578378 -0.22541709 0.74683547 6.3641175e-39
0.6500476 -0.22869389 0.74486637 6.8247243e-39
0.57769406 -0.21324378 0.74504149 2.8599591e-39
0.5815649 -0.21806 0.74609739 2.8599577e-39
0.60910058 -0.21705954 0.74976665 3.9667018e-39
0.63576251 -0.2152791 0.74930239 5.7187887e-39
0.64107996 -0.21836725 0.74697185 7.4697336e-39
0.56879622 -0.2019994 0.74416858 2.8603178e-39
0.57295525 -0.2067765 0.74606907 2.8599605e-39
0.6273151 -0.20119514 0.74724919 7.7463078e-39
0.63134247 -0.20667757 0.74769449 7.2853479e-39
0.55944848 -0.19076459 0.74343866 2.8603164e-39
0.56378305 -0.19527325 0.74568647 2.8603178e-39
0.61811775 -0.19110163 0.74992752 5.2581735e-39
0.62425309 -0.19588633 0.74697578 7.9306977e-39
0.55553156 -0.18472463 0.74499422 2.8603192e-39
0.56004119 -0.1882838 0.74966079 2.9521575e-39
0.61403906 -0.18417923 0.74917197 6.6403569e-39
0.54889309 -0.17322432 0.74691594 2.9521575e-39
0.55141705 -0.17653963 0.74490106 2.9521575e-39
0.6067273 -0.17356417 0.74867475 6.2715813e-39
0.61028862 -0.17882699 0.74900997 5.8109759e-39
0.54802042 -0.16449019 0.7431435 2.8621171e-39
0.55008835 -0.16957448 0.74290025 2.9521575e-39
0.5994069 -0.16307425 0.74805212 7.1931551e-39
0.60186332 -0.16606613 0.74807817 7.193511e-39
0.54715139 -0.15490679 0.7453084 2.952875e-39
0.5505259 -0.15051228 0.74005407 2.8599577e-39
0.59743065 -0.15983285 0.74675107 8.4831232e-39
0.54991311 -0.14998506 0.74310893 2.8599577e-39
0.55509073 -0.14828907 0.74380928 3.0443587e-39
0.56471497 -0.14626534 0.7435807 3.1365544e-39
0.57521081 -0.14503394 0.74525225 3.1365544e-39
0.58123207 -0.14845416 0.74966264 2.9521617e-39
0.45567489 0.048768591 0.74620771 6.8224766e-39
0.45537966 0.054597821 0.74380261 7.2880622e-39
0.45842108 0.063252881 0.74461263 8.3064685e-39
0.46404555 0.068274543 0.74526906 7.3823808e-39
0.45317113 0.070599586 0.74966663 4.3331946e-39
0.46837431 0.071175873 0.74344081 8.8514895e-39
0.47498646 0.075812601 0.74536246 8.7585848e-39
0.48450884 0.082860686 0.74520612 8.0210198e-39
0.49264756 0.08805085 0.74540955 8.3898023e-39
0.49783054 0.09117189 0.74437428 8.6663892e-39
0.50510466 0.09552861 0.74497503 8.9433362e-39
0.51154131 0.099487841 0.74520284 9.4035927e-39
0.51666987 0.10265309 0.74490964 1.0694693e-38
0.5256418 0.1078582 0.74482894 1.1432255e-38
0.5343734 0.11276548 0.7456435 8.3000688e-39
0.54319811 0.11752638 0.74824315 7.9312316e-39
0.44372663 -0.39476812 0.7551176 6.7987148e-39
0.43742484 -0.38416135 0.75506991 6.7983547e-39
0.44032428 -0.38934582 0.75798053 6.891272e-39
0.432731 -0.37493011 0.75481075 6.7983547e-39
0.42762026 -0.36497402 0.75514537 6.7983547e-39
0.42252615 -0.3550874 0.75437772 6.7058017e-39
0.41751325 -0.34530309 0.75476736 6.7061604e-39
0.40967268 -0.33064839 0.75444555 6.6136061e-39
0.4126167 -0.33614478 0.75484097 6.7065206e-39
0.40674347 -0.32509443 0.75500727 6.521772e-39
0.39935961 -0.31109154 0.75563252 6.7983561e-39
0.40189403 -0.31585756 0.75480747 6.6139676e-39
0.39676839 -0.30459335 0.75552255 6.9823844e-39
0.40505803 -0.30350912 0.7559247 6.6146893e-39
0.3952958 -0.29526579 0.75498152 7.2593258e-39
0.40106076 -0.29067367 0.75050014 6.2448278e-39
0.63927925 -0.29109144 0.75222301 3.043993e-39
0.64513391 -0.29341716 0.75389415 2.6752063e-39
0.65510637 -0.29418668 0.75694197 3.1361704e-39
0.66149229 -0.29326767 0.75915813 3.2283576e-39
0.39853716 -0.28939512 0.75776583 6.7058003e-39
0.40539956 -0.28591481 0.75436002 7.9119091e-39
0.41154847 -0.28117436 0.75428569 8.0037418e-39
0.63520581 -0.28395608 0.75488275 3.4135098e-39
0.64446741 -0.28511131 0.75786859 4.704648e-39
0.65488112 -0.28506193 0.7584663 4.0588778e-39
0.66412985 -0.28328696 0.75666505 4.5198728e-39
0.41624859 -0.27796829 0.75470269 7.4480485e-39
0.42492411 -0.27427593 0.75477058 8.4679611e-39
0.43303534 -0.27123845 0.75512826 6.6154095e-39
0.62660909 -0.27385205 0.75497627 3.136553e-39
0.63443577 -0.27654016 0.75923592 4.519891e-39
0.64605057 -0.27573019 0.75927407 4.9812461e-39
0.6556952 -0.27481648 0.7575959 5.0738047e-39
0.6638307 -0.27501929 0.75531304 5.0738033e-39
0.67081314 -0.27632657 0.75135201 5.9028114e-39
0.4376879 -0.26916078 0.75535703 6.2448278e-39
0.44198149 -0.2675254 0.75430018 6.3381038e-39
0.61777139 -0.26345685 0.75333077 3.3209512e-39
0.62282181 -0.26575264 0.75709796 3.5975437e-39
0.64775342 -0.2645373 0.75920951 4.9816076e-39
0.65519845 -0.26510307 0.75741327 5.0738047e-39
0.66307539 -0.26489252 0.75385207 5.0738033e-39
0.60851425 -0.25265345 0.75219399 3.2287514e-39
0.61470598 -0.2557953 0.75576437 3.6897436e-39
0.62396014 -0.25567883 0.75935221 4.1510973e-39
0.63547593 -0.25259405 0.75944716 4.8894092e-39
0.64480835 -0.25469664 0.75821215 4.9816048e-39
0.65486205 -0.25495639 0.75557202 4.9816048e-39
0.66417563 -0.25627509 0.75163823 5.1656304e-39
0.59882677 -0.24086624 0.75134778 2.951796e-39
0.60563374 -0.24495709 0.75567609 3.5975465e-39
0.61433589 -0.24589728 0.75928748 4.4280527e-39
0.62557459 -0.24456987 0.75923747 4.8894092e-39
0.63528901 -0.24528141 0.75793934 4.9812447e-39
0.64488757 -0.24475123 0.75588018 4.9816048e-39
0.65348572 -0.24586806 0.75314039 4.9812433e-39
0.58498299 -0.23037824 0.75113326 4.7972094e-39
0.59608299 -0.23400421 0.75519532 3.3209498e-39
0.60268617 -0.23640577 0.75879091 4.3354941e-39
0.61553323 -0.23425081 0.75910771 4.9816048e-39
0.62484223 -0.23507364 0.75789684 4.9816034e-39
0.6348595 -0.23536851 0.75593454 4.9816048e-39
0.64386439 -0.23566025 0.75390995 4.8890449e-39
0.6514678 -0.23770975 0.7503503 4.7050011e-39
0.58759713 -0.22344398 0.75391495 3.1361928e-39
0.59340161 -0.22561178 0.75823647 4.059259e-39
0.60657269 -0.22551177 0.75915813 4.8901225e-39
0.61530137 -0.22504002 0.75777489 4.9816048e-39
0.62477696 -0.22489847 0.75598127 4.9816048e-39
0.63469619 -0.2254108 0.75363851 4.9812447e-39
0.6415953 -0.22619626 0.75103974 4.9812377e-39
0.57939565 -0.2116985 0.75227439 2.8599591e-39
0.58489853 -0.2153343 0.75652319 3.6901037e-39
0.59172946 -0.21794041 0.75974238 4.6128097e-39
0.6050747 -0.21468936 0.75874853 4.9812461e-39
0.61503196 -0.21526229 0.75633705 5.0738019e-39
0.62467116 -0.21523862 0.75409114 4.9816062e-39
0.63205683 -0.21653983 0.75154698 5.0734375e-39
0.56954074 -0.20058653 0.75022179 3.043993e-39
0.57565922 -0.20425007 0.75515389 3.3209526e-39
0.58405858 -0.2065251 0.75943649 4.5206127e-39
0.59776229 -0.2032491 0.7594794 5.0738033e-39
0.60491043 -0.20533736 0.75773805 5.0738033e-39
0.61522162 -0.20482072 0.7548371 5.0738019e-39
0.62389922 -0.20633107 0.75245732 5.0738005e-39
0.56692547 -0.1940933 0.75463039 3.22875e-39
0.57244462 -0.19715104 0.75809228 3.6901037e-39
0.59618998 -0.19447839 0.75890762 6.0875852e-39
0.60519719 -0.19485046 0.75647348 5.0738033e-39
0.61429995 -0.19575593 0.7536819 5.0734417e-39
0.62114429 -0.19636261 0.75020587 5.1656247e-39
0.55826974 -0.18289946 0.75341713 2.9521589e-39
0.5625006 -0.18651752 0.75636089 3.2298318e-39
0.58747488 -0.18384922 0.75960928 1.5021751e-38
0.59476751 -0.18454407 0.75798821 1.3643922e-38
0.60432577 -0.18562967 0.75509703 5.0734431e-39
0.6121484 -0.18723103 0.75161946 4.9812433e-39
0.54947662 -0.171994 0.75053751 3.4131455e-39
0.55474555 -0.17514223 0.75542301 3.2287514e-39
0.57782191 -0.17241769 0.75949764 1.206716e-38
0.58517718 -0.17488979 0.75841206 1.0680616e-38
0.59475809 -0.17518747 0.75619471 1.2534679e-38
0.60351449 -0.17636982 0.75233185 5.2581847e-39
0.54762936 -0.16434515 0.75340289 3.3209512e-39
0.55312413 -0.16409165 0.75812995 3.874139e-39
0.56571418 -0.16276845 0.75926304 1.3917936e-38
0.57498497 -0.16462837 0.75822181 1.114448e-38
0.58467156 -0.16507225 0.75645262 1.0780069e-38
0.59395403 -0.16595495 0.75352859 5.3500202e-39
0.54852515 -0.15586868 0.75194335 3.3209526e-39
0.55444342 -0.15468383 0.75609553 4.0585163e-39
0.56494713 -0.15522988 0.75749177 1.0325623e-38
0.57517099 -0.15478814 0.75520551 1.3544099e-38
0.584387 -0.15610099 0.7535097 1.6042068e-38
0.59278166 -0.1599298 0.75180566 4.7968478e-39
0.55625838 -0.14808065 0.75454402 3.2287556e-39
0.56493628 -0.14716992 0.75532579 4.2432873e-39
0.57392424 -0.14723562 0.75250703 9.4980374e-39
0.45498505 0.047299195 0.7575596 5.9927159e-39
0.45249793 0.054469693 0.75602287 6.640567e-39
0.45727202 0.063061766 0.75488436 8.3064685e-39
0.4637844 0.067877606 0.75505829 7.3830927e-39
0.46842346 0.070998169 0.75385976 8.9440369e-39
0.47480884 0.075475559 0.75516474 1.1524454e-38
0.4812474 0.079878554 0.75598764 1.1616649e-38
0.48527804 0.082690544 0.75474173 1.0326271e-38
0.49324939 0.087653451 0.75501215 1.0141518e-38
0.49835894 0.090791352 0.75523484 9.9574882e-39
0.50472564 0.094680957 0.75545019 1.0233709e-38
0.51147771 0.098866537 0.754498 1.0417735e-38
0.51684719 0.10213055 0.75462532 9.6805033e-39
0.52509552 0.10709879 0.75469631 9.1276476e-39
0.53436232 0.11283474 0.75553602 8.9460828e-39
0.54327089 0.11798032 0.75466686 8.4890605e-39
0.44349945 -0.39483881 0.76504582 7.4487687e-39
0.43726212 -0.38449621 0.76527339 7.5413245e-39
0.44048232 -0.38998038 0.76692343 8.0966591e-39
0.4299027 -0.37051028 0.76869094 6.8005211e-39
0.43240002 -0.37542236 0.76500648 7.3558542e-39
0.42741475 -0.36509377 0.76506627 7.6338817e-39
0.41978556 -0.35025221 0.76322579 6.3373849e-39
0.42242306 -0.35542259 0.76514322 7.2632985e-39
0.41703203 -0.34512791 0.76496476 7.4484086e-39
0.40941739 -0.33075365 0.76533628 6.8916335e-39
0.41208127 -0.33579034 0.76493603 7.6338803e-39
0.40620309 -0.324525 0.76488519 8.0030187e-39
0.39952692 -0.31090149 0.76474237 8.0962976e-39
0.40173659 -0.31585306 0.7652446 8.0033803e-39
0.39780104 -0.30497491 0.76501399 6.5221335e-39
0.39529821 -0.29432571 0.76456875 6.7979945e-39
0.39760122 -0.28867075 0.76561624 6.8901888e-39
0.40513933 -0.28412199 0.76487529 7.171463e-39
0.4112151 -0.28060338 0.76485515 7.5420462e-39
0.6599142 -0.28472388 0.76029724 4.1503139e-39
0.66208822 -0.28653294 0.76046956 5.6254398e-39
0.41589096 -0.27808869 0.76485425 6.2448278e-39
0.42483571 -0.27403724 0.76522475 7.1711029e-39
0.43212831 -0.27097258 0.76449114 9.0232929e-39
0.63505423 -0.27194357 0.76031882 4.8890463e-39
0.6426096 -0.27157083 0.76024282 4.9812461e-39
0.43726754 -0.26880014 0.76558065 6.3373835e-39
0.44169325 -0.26706839 0.76494437 6.4302994e-39
0.62741959 -0.26382133 0.76064599 4.6128097e-39
0.63493568 -0.26518819 0.76130843 4.7968492e-39
0.64238298 -0.26543757 0.76036429 4.9816076e-39
0.61792976 -0.25181958 0.76055825 4.4280527e-39
0.62498051 -0.25526616 0.76067895 4.7050095e-39
0.63429195 -0.25720966 0.76050144 4.8894078e-39
0.61481673 -0.24517944 0.76039517 4.7050095e-39
0.6213361 -0.24905838 0.76021719 4.9816034e-39
0.60697258 -0.23406604 0.76036322 4.6128097e-39
0.61132395 -0.23761128 0.76040953 4.8894064e-39
0.58849889 -0.22101323 0.76456589 5.1659765e-39
0.5983783 -0.22313055 0.76023179 4.7050081e-39
0.60313374 -0.22572677 0.76035666 4.889405e-39
